ply
format ascii 1.0
element vertex 738
property float x
property float y
property float z
property float nx
property float ny
property float nz
property uchar diffuse_red
property uchar diffuse_green
property uchar diffuse_blue
end_header
1.44976 1.37636 2.31948 -0.896875 -0.303746 -0.321487 25 23 19
1.47 1.37882 2.29857 -0.720045 -0.140625 -0.679529 27 28 23
1.48936 1.3664 2.27885 -0.00614503 0.296131 -0.955128 55 45 36
1.53713 1.3774 2.27783 0.255016 -0.148686 -0.955437 155 159 158
1.52031 1.38099 2.27488 -0.0954325 0.0494518 -0.994207 49 44 39
1.55926 1.38076 2.28847 0.4313 -0.275111 -0.85924 167 164 166
1.58846 1.40741 2.29745 0.475435 -0.492379 -0.729057 99 90 94
1.57374 1.40141 2.29122 0.395516 -0.171744 -0.902259 122 114 119
1.59516 1.39643 2.29175 0.191252 -0.35209 -0.916218 88 80 82
1.60208 1.38665 2.27905 0.17283 -0.268288 -0.947709 68 63 65
0.040035 1.04179 2.15237 0.130155 -0.824498 -0.550693 25 18 15
0.0402472 1.04136 2.15113 0.0487393 -0.808302 -0.586747 25 18 15
0.0492566 1.0524 2.14869 0.420482 -0.25411 -0.87099 27 18 16
0.0490983 1.05263 2.14928 0.380298 -0.264762 -0.886157 27 18 16
0.0487529 1.05079 2.15035 0.33549 -0.28302 -0.898524 27 18 16
0.0633268 1.05104 2.15256 0.416711 -0.308816 -0.854977 52 35 38
0.0633983 1.05092 2.1526 0.425027 -0.289675 -0.857578 52 35 39
0.0770015 1.05248 2.15808 0.17799 -0.321535 -0.930019 136 139 150
0.0850783 1.06456 2.15532 0.149645 -0.322965 -0.934505 165 70 95
0.117988 1.06667 2.15929 0.261104 -0.445866 -0.856171 138 145 154
0.132409 1.06651 2.163 0.242104 -0.43345 -0.868048 77 154 175
0.140003 1.07794 2.16025 0.208451 -0.406419 -0.889591 61 155 178
0.15497 1.07842 2.16289 0.130938 -0.364293 -0.922034 95 156 157
0.169697 1.07796 2.16548 0.118027 -0.362259 -0.924575 70 47 40
0.184107 1.07857 2.1685 0.249731 -0.325481 -0.911974 36 19 14
0.192021 1.09046 2.16446 0.142076 -0.316064 -0.938039 29 24 20
0.229195 1.06757 2.12705 -0.340292 -0.337923 -0.877502 40 40 36
0.25179 1.07849 2.12779 0.350457 -0.345681 -0.870451 31 29 27
0.267195 1.08908 2.13134 0.36061 -0.459263 -0.811812 37 34 31
0.280901 1.08607 2.1417 0.178557 -0.549423 -0.816242 43 39 37
0.294201 1.09243 2.13754 0.130776 -0.502742 -0.854487 44 43 39
0.307214 1.09995 2.1351 0.229515 -0.360078 -0.904249 75 113 78
0.320357 1.09476 2.141 0.218597 -0.438456 -0.871763 70 96 66
0.342171 1.1048 2.1384 0.00528464 -0.357213 -0.934008 51 55 28
0.358992 1.10118 2.13159 -0.477885 -0.386536 -0.788806 27 24 15
0.359109 1.10159 2.13191 -0.504213 -0.332928 -0.796824 24 22 14
0.373682 1.10279 2.12529 -0.570427 -0.413888 -0.709444 12 13 11
0.388558 1.09703 2.1171 -0.297887 -0.863243 -0.407523 13 13 11
0.415613 1.08665 2.06294 -0.468579 -0.273596 -0.839988 51 31 16
0.410746 1.07625 2.06386 -0.668731 -0.109833 -0.735347 42 30 17
0.430623 1.08646 2.0543 -0.0545118 -0.314223 -0.947783 94 49 25
0.446248 1.0852 2.05354 -0.0404865 -0.347764 -0.936708 115 63 31
0.460371 1.08524 2.05255 -0.117077 -0.404002 -0.907235 120 67 34
0.489474 1.08438 2.05636 0.103496 -0.393696 -0.913396 128 76 32
0.476138 1.08337 2.05303 0.292277 -0.326787 -0.898768 130 75 41
0.495006 1.09516 2.05311 0.0557446 -0.345038 -0.936932 150 107 35
0.508742 1.09541 2.05418 0.0435104 -0.339988 -0.939423 209 182 47
0.510498 1.09742 2.05581 -0.0732911 -0.309619 -0.948032 205 180 46
0.523286 1.09583 2.0545 0.121208 -0.351872 -0.928167 82 70 20
0.536932 1.0956 2.0558 0.189637 -0.355278 -0.915322 24 22 19
0.537155 1.09625 2.0571 0.160846 -0.306852 -0.938067 24 22 19
0.544242 1.10622 2.05197 0.131181 -0.356416 -0.925073 22 22 20
0.545051 1.10717 2.05137 0.142692 -0.335982 -0.930997 22 22 20
0.558048 1.10503 2.05184 0.153809 -0.379296 -0.912402 21 22 19
0.558605 1.10697 2.05308 0.151054 -0.425483 -0.892271 21 21 19
0.571784 1.10359 2.05163 0.0903212 -0.465858 -0.880238 20 20 18
0.586469 1.10519 2.05614 0.0464732 -0.363596 -0.930397 18 18 18
0.633689 1.12011 2.06351 0.313876 -0.821976 -0.475224 20 19 19
0.668798 1.13492 2.06458 0.125921 -0.329323 -0.935783 24 23 22
0.682177 1.13421 2.06499 0.131335 -0.372717 -0.918604 24 21 21
0.69802 1.13296 2.06766 0.05614 -0.456534 -0.887933 22 21 20
0.73198 1.14337 2.06313 -0.00925851 -0.38316 -0.923636 108 23 17
0.718376 1.1439 2.06278 0.0682326 -0.322475 -0.944116 31 23 22
0.718144 1.14276 2.06224 0.0530102 -0.35796 -0.932231 30 23 22
0.746886 1.14729 2.06917 0.603999 -0.328794 -0.726003 235 45 42
0.838537 1.21855 2.17114 -0.310737 -0.85515 -0.414922 81 120 53
0.85665 1.22323 2.1708 0.123285 -0.979349 -0.16024 98 149 72
0.8565 1.21801 2.19076 -0.298991 -0.87555 -0.379495 112 174 88
0.876044 1.22166 2.1789 -0.486723 -0.839134 -0.242805 119 168 100
1.0533 1.28346 2.22055 -0.795901 -0.376296 -0.474281 36 62 26
1.06167 1.25965 2.17628 -0.829589 -0.290939 -0.476588 71 117 55
1.08559 1.25348 2.15239 -0.536104 -0.772126 -0.341194 92 154 75
1.10138 1.24786 2.13777 -0.360265 -0.903706 -0.231354 102 165 80
1.11777 1.24614 2.12915 -0.626759 -0.753915 -0.196942 87 136 64
1.11822 1.24593 2.1291 -0.612752 -0.76396 -0.202238 86 134 62
1.12695 1.24072 2.10855 -0.780751 -0.596951 -0.184599 70 71 27
1.36841 1.37833 2.32194 -0.095235 -0.922567 -0.373899 137 137 134
1.40277 1.39997 2.3475 0.0767084 -0.26311 -0.961712 114 113 108
1.38613 1.39568 2.33834 -0.389739 -0.609954 -0.689971 130 128 126
1.42 1.39984 2.34706 -0.76361 -0.112077 -0.635876 81 77 72
1.43765 1.4071 2.33954 -0.226974 -0.863142 -0.451075 54 49 45
1.45194 1.39701 2.31101 -0.840847 -0.482624 -0.245052 27 23 19
1.46461 1.39679 2.2961 -0.559766 -0.645451 -0.519668 26 26 22
1.47792 1.39037 2.28972 -0.345625 -0.335445 -0.876368 55 55 48
1.50153 1.38631 2.28324 -0.433344 0.0794172 -0.897722 85 77 67
1.5111 1.39968 2.27871 -0.289685 0.0773756 -0.953989 108 98 93
1.53049 1.39856 2.27508 0.0276176 0.0666907 -0.997391 55 48 42
1.5285 1.39673 2.27472 0.0207104 0.0784284 -0.996705 52 45 39
1.54804 1.39551 2.27825 0.377834 -0.0556374 -0.9242 158 158 157
1.59194 1.41509 2.27857 0.0881466 -0.350938 -0.93224 97 89 91
0.0453561 1.0626 2.13829 0.689569 -0.355161 -0.631153 25 18 15
0.058126 1.06369 2.14676 0.401304 -0.303272 -0.864281 30 21 20
0.0582261 1.0635 2.1466 0.415392 -0.302351 -0.857924 31 21 20
0.0704688 1.06468 2.15277 0.250518 -0.28187 -0.926169 126 74 88
0.0973181 1.07838 2.1501 0.075593 -0.365232 -0.927842 179 71 96
0.112018 1.07841 2.15306 0.215043 -0.382657 -0.898516 174 119 131
0.126233 1.07832 2.15639 0.224386 -0.348538 -0.91004 96 158 169
0.134264 1.08922 2.15327 0.225879 -0.340064 -0.912872 79 160 174
0.148417 1.09012 2.15675 0.118009 -0.31854 -0.940535 79 162 176
0.163039 1.08971 2.15953 0.259599 -0.328945 -0.907966 83 107 102
0.162973 1.09035 2.15927 0.255117 -0.33126 -0.908395 83 108 104
0.177378 1.09046 2.1628 0.107781 -0.313383 -0.943491 56 22 15
0.184767 1.1034 2.16116 0.311151 -0.319004 -0.895221 38 19 13
0.204238 1.0943 2.14892 -0.527778 -0.375069 -0.762085 27 30 26
0.218527 1.08365 2.12996 -0.397417 -0.271513 -0.87655 26 28 26
0.243202 1.08598 2.12031 0.326156 -0.252925 -0.910852 39 40 36
0.268001 1.10252 2.12482 0.187175 -0.375904 -0.907558 36 36 32
0.259851 1.09031 2.12634 0.312915 -0.30794 -0.898475 35 32 31
0.281244 1.09816 2.13247 0.0948562 -0.509729 -0.85509 39 39 35
0.301417 1.11159 2.12921 0.225691 -0.338421 -0.913529 100 160 103
0.314706 1.10624 2.13421 0.223027 -0.349529 -0.909994 107 162 104
0.328847 1.10634 2.13795 0.232586 -0.340872 -0.910884 90 124 74
0.336566 1.11726 2.1341 0.120584 -0.33514 -0.93442 52 69 38
0.336765 1.11735 2.13401 0.110676 -0.336011 -0.935333 52 68 38
0.349719 1.11435 2.13017 -0.251875 -0.41383 -0.874816 29 29 17
0.349921 1.11438 2.12982 -0.25686 -0.41462 -0.872991 29 28 17
0.36357 1.11756 2.13163 -0.230978 -0.375919 -0.897404 14 13 11
0.378944 1.11305 2.11791 -0.506343 -0.308428 -0.805288 12 12 11
0.398373 1.11636 2.10647 -0.204764 -0.403184 -0.891916 21 18 13
0.399581 1.11125 2.1011 -0.628861 -0.325765 -0.705983 23 20 14
0.408134 1.10682 2.07393 -0.649073 -0.210498 -0.731023 39 26 16
0.42121 1.1004 2.05435 -0.466102 -0.279352 -0.839471 64 35 18
0.452955 1.09686 2.04962 -0.0759544 -0.294239 -0.952709 114 64 32
0.466534 1.09765 2.04867 -0.0461726 -0.317858 -0.947013 123 71 37
0.474691 1.10583 2.04666 0.162368 -0.349538 -0.922746 124 70 36
0.48838 1.10632 2.0485 0.0673963 -0.334478 -0.939991 126 75 30
0.504872 1.10617 2.04918 0.194254 -0.333176 -0.922637 206 177 51
0.531106 1.1069 2.05048 0.0246515 -0.34997 -0.936437 27 23 12
0.538492 1.11861 2.04818 0.0960152 -0.317265 -0.943464 23 21 18
0.538659 1.11909 2.04838 0.108243 -0.318953 -0.941569 23 21 18
0.539608 1.11987 2.04905 0.133458 -0.324788 -0.936324 23 21 18
0.550892 1.12236 2.05729 0.549309 -0.133626 -0.824866 21 20 19
0.566124 1.1181 2.04997 0.572141 -0.588563 -0.571181 18 18 17
0.581899 1.11874 2.05553 0.610432 -0.433519 -0.662899 15 15 13
0.588376 1.12938 2.05642 0.209066 -0.542983 -0.813302 17 16 15
0.599949 1.13563 2.05753 0.0416658 -0.545549 -0.837043 19 19 18
0.601922 1.12372 2.05621 0.167602 -0.205895 -0.964115 19 18 17
0.613464 1.13517 2.0578 0.0711845 -0.485945 -0.871086 22 21 20
0.626971 1.13479 2.05887 0.11911 -0.376556 -0.918705 22 21 20
0.648057 1.14531 2.05597 0.103896 -0.471144 -0.875916 23 21 19
0.640693 1.135 2.06106 0.092226 -0.431458 -0.897406 21 20 19
0.640778 1.13498 2.06101 0.0908399 -0.430037 -0.89823 21 20 19
0.661822 1.14552 2.05797 0.0949708 -0.492456 -0.86514 25 23 22
0.675394 1.14487 2.05867 0.116802 -0.358317 -0.926265 27 25 24
0.696874 1.15406 2.05335 0.118221 -0.211395 -0.970225 64 49 48
0.690243 1.1464 2.06326 0.156891 -0.548128 -0.821548 24 21 20
0.710925 1.15398 2.05533 0.146569 -0.295594 -0.944003 63 49 46
0.703261 1.14551 2.06339 0.10132 -0.440169 -0.89218 25 22 20
0.72564 1.15518 2.05907 0.0900316 -0.336494 -0.937372 61 25 22
0.739699 1.15505 2.05915 -0.0291408 -0.320492 -0.946803 204 43 35
0.753835 1.16041 2.06765 0.482272 -0.303501 -0.821767 233 48 44
0.773069 1.17415 2.08359 0.631341 -0.404323 -0.661764 78 35 19
0.838539 1.2251 2.15327 -0.299486 -0.896663 -0.326043 57 76 27
1.0549 1.28944 2.19196 -0.836316 -0.267253 -0.478698 30 49 21
1.06454 1.26475 2.14583 -0.828237 -0.297648 -0.474794 67 108 47
1.08405 1.25112 2.12157 -0.803752 -0.587483 -0.0940503 89 148 71
1.08767 1.25755 2.10568 -0.525267 -0.637396 -0.563756 82 135 65
1.10135 1.25296 2.11859 -0.35726 -0.900554 -0.247725 99 160 80
1.11063 1.25522 2.09704 -0.508853 -0.821696 -0.256681 95 144 72
1.12351 1.25458 2.08413 -0.335497 -0.912779 -0.232973 64 82 32
1.1392 1.25326 2.07526 -0.0694544 -0.995427 -0.0655788 104 132 69
1.40786 1.40874 2.32918 0.477362 -0.199553 -0.855748 123 123 119
1.41912 1.42079 2.33124 -0.313118 -0.692969 -0.649423 121 120 115
1.42244 1.41677 2.33376 -0.250766 -0.913175 -0.321291 118 118 113
1.45007 1.40924 2.29593 -0.595445 -0.793746 -0.12415 33 28 25
1.46386 1.41128 2.2845 -0.597492 -0.70809 -0.376315 25 25 21
1.4847 1.40467 2.2801 -0.150918 -0.362471 -0.919695 76 77 68
1.50265 1.40694 2.28083 -0.489637 -0.282264 -0.824974 105 100 94
1.4911 1.41621 2.27017 0.125593 -0.525279 -0.84161 89 87 78
1.5397 1.41617 2.27777 0.0282438 0.0729176 -0.996938 68 61 54
1.54148 1.41765 2.27755 0.180927 -0.0205374 -0.983282 74 68 62
1.56382 1.42107 2.28251 0.350394 -0.0376189 -0.935846 157 153 156
1.5799 1.42166 2.27661 0.0383679 -0.207319 -0.977521 82 75 80
1.4841 1.19998 1.81579 -0.190419 0.0267726 -0.981338 91 103 88
0.0523041 1.07714 2.14255 0.352499 -0.234558 -0.90594 27 19 17
0.0530433 1.07606 2.14061 0.433452 -0.291161 -0.852845 27 19 17
0.0648304 1.07601 2.14573 0.355775 -0.283838 -0.890427 57 36 43
0.0731546 1.08802 2.14467 0.159766 -0.291978 -0.942986 137 82 95
0.0881681 1.08732 2.14585 0.0256369 -0.300619 -0.9534 168 66 86
0.105752 1.09079 2.14782 0.0297768 -0.297959 -0.954114 191 98 119
0.120337 1.08991 2.1499 0.238781 -0.33012 -0.913238 143 143 152
0.128418 1.10189 2.14782 0.242269 -0.337062 -0.909777 120 167 166
0.14175 1.10194 2.15132 0.191333 -0.333133 -0.923262 64 155 176
0.156946 1.1021 2.15438 0.188577 -0.326007 -0.926368 86 150 157
0.156869 1.10271 2.15409 0.184996 -0.323357 -0.928018 86 150 157
0.17095 1.10261 2.15785 0.280235 -0.33115 -0.901004 71 52 44
0.171004 1.10202 2.15824 0.299808 -0.328977 -0.895483 70 51 43
0.179643 1.11317 2.15515 0.127673 -0.303302 -0.944303 55 28 18
0.179449 1.11395 2.15495 0.12096 -0.306103 -0.944283 56 29 18
0.194614 1.11245 2.15582 0.116284 -0.41425 -0.902704 28 24 21
0.194337 1.11345 2.15592 0.142183 -0.416859 -0.897782 28 24 21
0.214452 1.10143 2.1365 -0.645362 -0.392914 -0.655078 24 29 25
0.236913 1.09935 2.11686 0.32366 -0.254079 -0.911421 49 51 46
0.251592 1.10008 2.12212 0.243731 -0.359595 -0.900715 33 32 31
0.259194 1.11096 2.11815 0.233096 -0.299225 -0.925273 34 37 33
0.273439 1.1118 2.12266 0.185972 -0.364434 -0.91247 51 73 51
0.287481 1.11157 2.12573 0.228745 -0.324011 -0.917983 83 130 87
0.295444 1.12323 2.12331 0.231032 -0.341615 -0.911001 95 160 103
0.30937 1.12322 2.12673 0.210544 -0.329166 -0.9205 92 153 102
0.322937 1.11801 2.13204 0.215836 -0.307431 -0.926769 91 140 90
0.33072 1.12957 2.12925 0.207325 -0.297653 -0.93189 37 47 32
0.34342 1.1268 2.1266 -0.126161 -0.4597 -0.879067 22 21 14
0.343642 1.12704 2.1267 -0.124119 -0.448063 -0.885344 22 20 14
0.34381 1.1267 2.12678 -0.124673 -0.45645 -0.880971 22 21 14
0.35488 1.12992 2.12876 -0.259144 0.257366 -0.930918 14 13 10
0.37092 1.12605 2.11814 -0.300903 -0.0922497 -0.949183 10 10 9
0.389542 1.12837 2.09833 -0.585464 -0.356898 -0.727912 12 11 10
0.389901 1.12866 2.1011 -0.602151 -0.334651 -0.724861 12 11 10
0.389901 1.12866 2.1011 -0.602151 -0.334651 -0.724861 12 11 10
0.389542 1.12837 2.09833 -0.585464 -0.356898 -0.727912 12 11 10
0.416258 1.11433 2.05312 -0.493631 -0.218345 -0.841816 50 30 15
0.436116 1.10059 2.04637 0.318832 -0.292082 -0.901684 94 49 23
0.445507 1.10894 2.04713 0.0305554 -0.321325 -0.946476 98 53 26
0.468086 1.11692 2.04162 0.00437279 -0.229316 -0.973342 120 69 35
0.481819 1.11737 2.0436 0.0833284 -0.322314 -0.942958 125 71 33
0.497639 1.1172 2.04496 0.125544 -0.35279 -0.927242 163 125 37
0.511238 1.11965 2.04799 -0.0779703 -0.313945 -0.946234 203 178 46
0.52479 1.11898 2.0478 0.0746873 -0.302004 -0.950377 63 52 17
0.518066 1.1304 2.04309 -0.0329456 -0.298532 -0.953831 156 137 42
0.532552 1.13116 2.04502 0.195585 -0.307849 -0.931115 25 22 14
0.533239 1.13117 2.04404 0.162613 -0.300344 -0.939867 25 22 14
0.531891 1.13024 2.04422 0.0981737 -0.29867 -0.949293 26 23 14
0.585325 1.13575 2.05611 0.0431516 -0.529129 -0.847444 16 16 15
0.593059 1.14509 2.04964 0.126509 -0.4806 -0.867767 20 19 17
0.620603 1.14543 2.0526 0.128957 -0.501878 -0.855271 27 24 23
0.608365 1.14996 2.0466 0.0952674 -0.339972 -0.935598 52 42 40
0.60684 1.14529 2.05079 0.0497442 -0.471449 -0.880489 25 24 22
0.633904 1.1448 2.05324 0.11864 -0.410589 -0.904069 24 22 20
0.640877 1.15529 2.0484 0.119435 -0.355839 -0.926884 102 80 77
0.654971 1.15544 2.0505 0.116677 -0.414697 -0.902448 92 71 68
0.668981 1.15564 2.05265 0.110741 -0.404373 -0.907865 86 68 67
0.682585 1.15543 2.05394 0.138881 -0.391527 -0.909625 79 63 62
0.690341 1.1667 2.05047 0.141869 -0.316086 -0.938063 140 100 99
0.704463 1.16561 2.05041 0.141707 -0.305691 -0.941526 133 94 93
0.718655 1.16667 2.0539 0.141958 -0.335177 -0.931399 140 100 96
0.740211 1.17741 2.05094 0.105918 -0.313895 -0.943531 220 43 36
0.732754 1.16668 2.05523 0.0201274 -0.323563 -0.945992 135 30 22
0.753528 1.17739 2.05832 0.369545 -0.212878 -0.904499 236 46 44
0.769274 1.18513 2.0718 0.583005 -0.391111 -0.712135 103 41 28
0.83857 1.22981 2.1332 -0.235153 -0.951158 -0.200006 47 57 21
0.856921 1.23066 2.1281 0.183152 -0.969774 -0.161224 77 109 47
0.875454 1.23893 2.12737 0.292553 -0.93174 -0.215112 105 161 79
0.899726 1.24081 2.13207 -0.816111 -0.547498 -0.184953 126 151 113
0.910791 1.24031 2.11727 -0.542138 -0.751611 -0.375721 130 142 125
1.06373 1.29295 2.15886 -0.866347 -0.14375 -0.478309 35 58 24
1.06912 1.27792 2.12869 -0.839935 -0.26865 -0.471525 59 97 47
1.10142 1.25964 2.10185 -0.383954 -0.864712 -0.323809 95 151 77
1.11039 1.26189 2.07983 -0.470334 -0.815977 -0.336107 73 120 52
1.10852 1.26357 2.07872 -0.185406 -0.862468 -0.470929 76 125 55
1.12365 1.26034 2.06688 -0.319477 -0.909149 -0.267178 102 160 82
1.13719 1.25445 2.04979 -0.312128 -0.948512 0.0538656 110 176 89
1.20534 1.26234 2.03228 -0.71643 -0.667214 -0.203846 135 154 124
1.21702 1.25947 2.0186 -0.234482 -0.962976 -0.133027 140 148 134
1.43094 1.42433 2.29616 -0.595818 -0.792084 -0.132681 125 123 119
1.42191 1.42383 2.29962 -0.148391 -0.982717 -0.110665 123 122 117
1.45653 1.41226 2.27585 -0.733114 -0.582549 -0.35097 28 24 21
1.44723 1.43169 2.28041 -0.675155 -0.678645 -0.289147 88 83 80
1.4734 1.41431 2.27003 -0.436624 -0.457058 -0.774892 48 48 42
1.4612 1.42684 2.26597 -0.454879 -0.816984 -0.354432 33 31 27
1.50858 1.42287 2.27291 0.116121 -0.2332 -0.965471 107 103 96
1.53116 1.43726 2.27621 0.0353338 -0.0826773 -0.99595 94 81 73
1.5494 1.43761 2.27736 -0.544031 -0.0447704 -0.83787 87 78 71
1.39978 1.19694 1.80847 0.00482696 -0.965979 -0.258576 69 123 69
1.41508 1.19932 1.812 0.0951228 -0.977548 -0.18802 60 115 62
1.43269 1.19907 1.81246 -0.0193546 -0.718542 -0.695214 86 141 87
1.44974 1.20091 1.81466 0.204233 -0.936087 -0.286411 87 135 88
1.47616 1.21621 1.81734 0.00115905 -0.0106896 -0.999942 42 79 38
1.4909 1.21186 1.81128 -0.644284 0.0954778 -0.758803 78 106 76
0.0477411 1.08458 2.13539 0.543831 -0.325139 -0.773649 25 17 15
0.06006 1.08678 2.1431 0.28654 -0.31517 -0.904745 36 23 25
0.0666681 1.09996 2.13911 0.146755 -0.296894 -0.943566 62 42 47
0.0810427 1.10039 2.14236 0.114374 -0.3387 -0.933917 183 115 121
0.0809794 1.10051 2.14238 0.132393 -0.33361 -0.933369 183 115 122
0.0957674 1.10035 2.14409 0.0799699 -0.37623 -0.923069 168 56 82
0.0957256 1.10031 2.1441 0.11671 -0.354304 -0.927819 168 56 82
0.114291 1.10192 2.14418 0.167256 -0.326574 -0.930255 177 113 128
0.136709 1.11355 2.14499 0.219914 -0.362765 -0.90556 95 164 166
0.150887 1.11531 2.14848 0.166038 -0.302722 -0.938505 66 155 177
0.150451 1.11479 2.14878 0.204308 -0.342301 -0.917109 65 155 177
0.165211 1.11456 2.15172 0.296001 -0.311734 -0.902887 84 107 100
0.173591 1.12629 2.1496 0.21491 -0.326873 -0.920309 73 61 42
0.17366 1.12692 2.14933 0.203585 -0.324909 -0.923573 73 61 42
0.187127 1.12614 2.15368 0.366989 -0.312877 -0.876029 35 22 14
0.187111 1.12649 2.15264 0.311444 -0.321633 -0.894178 36 22 14
0.211502 1.12205 2.13205 -0.552958 -0.329853 -0.765137 24 29 24
0.22976 1.11404 2.11623 -0.10513 -0.202371 -0.97365 35 36 32
0.253264 1.12289 2.11201 0.240452 -0.354528 -0.9036 43 63 45
0.245114 1.11068 2.11407 0.250969 -0.301765 -0.919757 38 39 34
0.267128 1.12261 2.11544 0.262867 -0.291275 -0.919815 78 124 83
0.289352 1.1347 2.1168 0.251736 -0.412117 -0.875665 84 132 88
0.303185 1.13461 2.12025 0.236292 -0.36618 -0.900044 72 108 76
0.317209 1.13473 2.12383 0.218439 -0.344583 -0.912988 49 67 50
0.33779 1.13929 2.1228 0.0440225 -0.440751 -0.896549 24 21 18
0.352345 1.13881 2.1226 -0.557692 -0.416702 -0.717871 13 13 11
0.381059 1.13757 2.0874 -0.341183 -0.242886 -0.908075 12 11 10
0.399889 1.12699 2.06509 -0.466996 -0.295994 -0.833248 21 18 12
0.399058 1.12829 2.06516 -0.465357 -0.298552 -0.833252 21 18 11
0.438659 1.12038 2.04302 -0.0120078 -0.294841 -0.955471 100 54 26
0.452654 1.12018 2.04312 0.0474117 -0.296901 -0.953731 110 60 30
0.452802 1.1204 2.04287 0.0658471 -0.297155 -0.952556 110 60 30
0.460026 1.13096 2.03849 0.025042 -0.303049 -0.952646 116 64 32
0.477709 1.13233 2.03931 0.143871 -0.313875 -0.938501 125 72 36
0.477743 1.13261 2.03998 0.0825606 -0.32485 -0.942155 125 72 36
0.491761 1.13131 2.03962 0.12363 -0.339276 -0.932527 135 88 27
0.511444 1.1432 2.03971 -0.131424 -0.213771 -0.968003 200 177 46
0.518845 1.1312 2.04222 -0.10154 -0.289993 -0.951627 146 128 39
0.527098 1.14301 2.03976 0.0964951 -0.27111 -0.957699 44 36 13
0.539772 1.14195 2.04137 0.170944 -0.29815 -0.939087 27 25 21
0.540592 1.14242 2.04105 0.180328 -0.298368 -0.937261 28 26 22
0.539305 1.14196 2.04164 0.168958 -0.298205 -0.939429 27 24 20
0.552281 1.14038 2.04121 0.0674666 -0.204513 -0.976536 21 20 18
0.553084 1.14099 2.04211 0.138516 -0.207606 -0.968356 21 20 18
0.576885 1.15288 2.03872 0.0823064 -0.208897 -0.974468 65 47 44
0.589671 1.15887 2.0421 0.109656 -0.333907 -0.936206 110 81 77
0.60381 1.15731 2.04082 0.0781478 -0.209985 -0.974576 117 87 84
0.627165 1.15547 2.04695 0.0960235 -0.349934 -0.93184 97 75 73
0.635619 1.16792 2.04259 0.101139 -0.345415 -0.932984 103 68 65
0.662277 1.1665 2.04665 0.119203 -0.35197 -0.92839 122 83 82
0.648431 1.16655 2.04495 0.11425 -0.38344 -0.916472 114 78 75
0.676298 1.16666 2.0485 0.127486 -0.310564 -0.941965 125 88 87
0.683682 1.17817 2.04561 0.144154 -0.315053 -0.938063 111 30 25
0.697069 1.17765 2.0465 0.150579 -0.369885 -0.916794 108 32 27
0.71193 1.17741 2.04763 0.106106 -0.312244 -0.944058 101 32 27
0.726071 1.17743 2.04928 0.0885019 -0.316809 -0.944351 113 26 21
0.73355 1.18906 2.04612 0.116332 -0.294394 -0.948577 235 40 34
0.747791 1.19163 2.052 0.163959 -0.224993 -0.960466 244 43 39
0.762451 1.19555 2.06082 0.555656 -0.250951 -0.792635 179 59 51
0.775798 1.19622 2.06591 0.436888 -0.28672 -0.852597 66 42 29
0.782174 1.20585 2.05624 0.262344 -0.324921 -0.908626 25 22 15
0.838696 1.23526 2.11441 -0.277394 -0.944708 -0.174872 50 66 25
0.856961 1.23501 2.10746 0.112516 -0.96834 -0.222839 89 133 62
0.857619 1.2346 2.11168 0.214314 -0.947283 -0.238171 87 130 60
0.857441 1.23769 2.08863 -0.151312 -0.97903 -0.136403 101 157 76
0.874503 1.23524 2.09348 0.222408 -0.947189 -0.231016 114 177 92
0.892598 1.24197 2.11294 0.00933345 -0.998279 -0.0579001 121 172 101
0.913154 1.24834 2.1038 -0.181594 -0.949569 -0.255622 128 143 122
1.07957 1.29254 2.12686 -0.68516 -0.489301 -0.539574 54 86 40
1.0908 1.28047 2.10046 -0.858382 -0.409842 -0.308562 61 101 44
1.09896 1.27778 2.08511 -0.788901 -0.573326 -0.221208 69 112 50
1.11044 1.2723 2.06657 -0.490548 -0.695357 -0.525207 90 143 70
1.12339 1.26573 2.04912 -0.341029 -0.878706 -0.33403 100 161 79
1.13403 1.26429 2.03462 -0.603573 -0.703018 -0.376119 101 165 81
1.18569 1.26319 2.02155 0.0357313 -0.995942 -0.0825958 123 185 100
1.20618 1.26525 2.00064 -0.295487 -0.951267 -0.0881929 129 177 107
1.22524 1.26191 1.9913 -0.124164 -0.990176 -0.0642995 144 152 137
1.42738 1.43599 2.26465 -0.851125 -0.408212 -0.330076 129 131 129
1.37952 1.20742 1.82822 -0.187661 -0.981337 -0.0419744 81 129 80
1.3937 1.21323 1.81225 0.165566 -0.0458328 -0.985133 82 116 46
1.40852 1.21172 1.80944 0.0115269 -0.293377 -0.955927 75 103 37
1.44096 1.21342 1.81295 -0.0244454 0.00187641 -0.999699 60 84 30
1.4583 1.21575 1.81581 0.0500225 -0.0112898 -0.998684 48 74 29
1.46782 1.23271 1.82032 -0.00154056 -0.0249174 -0.999688 74 82 62
1.48266 1.22857 1.81458 -0.316056 -0.251442 -0.914814 98 98 93
0.0540673 1.09651 2.13057 0.615967 -0.284148 -0.734741 26 18 15
0.0604909 1.11124 2.1325 0.263947 -0.296136 -0.917952 29 22 20
0.0743822 1.11236 2.13672 0.15863 -0.317443 -0.934915 131 112 106
0.0889746 1.11236 2.13878 0.101437 -0.341308 -0.934462 157 88 90
0.107513 1.11448 2.13976 0.117999 -0.39438 -0.91134 191 88 113
0.12242 1.11387 2.14198 0.230124 -0.356594 -0.905475 167 160 145
0.130601 1.12565 2.13938 0.23367 -0.347269 -0.908186 148 179 154
0.144956 1.12694 2.14289 0.222941 -0.329954 -0.917294 64 154 176
0.159358 1.12688 2.14607 0.204738 -0.325216 -0.92321 85 145 151
0.167317 1.13908 2.14398 0.280251 -0.327683 -0.902266 80 102 94
0.181687 1.13825 2.14716 0.0837672 -0.325181 -0.941934 53 34 19
0.198875 1.13287 2.13898 -0.363385 -0.381222 -0.850071 28 25 20
0.207276 1.13354 2.13053 -0.529462 -0.382936 -0.756988 25 29 25
0.226206 1.12667 2.11348 -0.287464 -0.267386 -0.919711 29 30 27
0.23976 1.12409 2.11066 0.139115 -0.400182 -0.905815 47 52 44
0.247287 1.13463 2.10644 0.208224 -0.388721 -0.897518 55 89 59
0.261141 1.13456 2.10981 0.226796 -0.369754 -0.901025 94 151 100
0.275373 1.13542 2.1141 0.263862 -0.321751 -0.909314 93 144 92
0.275089 1.13457 2.1138 0.242568 -0.355412 -0.902687 94 147 93
0.283709 1.14646 2.1107 0.260636 -0.40702 -0.875445 61 84 60
0.283594 1.1468 2.11138 0.256302 -0.368988 -0.893396 61 84 60
0.297073 1.14614 2.11428 0.238008 -0.398857 -0.885587 45 56 43
0.297451 1.14629 2.11429 0.25286 -0.378256 -0.890497 44 54 42
0.310914 1.14552 2.11627 0.196386 -0.454124 -0.869025 40 41 36
0.325042 1.14597 2.12047 0.237304 -0.347718 -0.907071 35 33 31
0.34427 1.14756 2.11144 -0.215915 -0.485363 -0.847233 20 17 15
0.356418 1.15596 2.12212 0.11595 -0.246217 -0.962254 13 12 11
0.369398 1.15422 2.11428 -0.340253 -0.364448 -0.866837 10 9 9
0.389789 1.14293 2.06627 -0.369143 -0.2559 -0.893448 15 14 11
0.407547 1.13073 2.03988 -0.33522 -0.449037 -0.828247 27 22 14
0.405611 1.141 2.0567 -0.456323 -0.278726 -0.845033 34 27 17
0.420645 1.13538 2.04189 -0.4933 -0.23845 -0.836539 60 33 16
0.445978 1.13234 2.03938 0.0731491 -0.304215 -0.949791 102 54 26
0.44587 1.13133 2.03803 0.110189 -0.305552 -0.945778 102 54 26
0.453055 1.14275 2.03493 -0.0810023 -0.302915 -0.949569 115 64 31
0.453398 1.14328 2.03519 -0.0217045 -0.308097 -0.951107 115 65 32
0.471463 1.14322 2.03353 0.009515 -0.312653 -0.94982 120 69 34
0.485368 1.14291 2.03503 0.137158 -0.310488 -0.94063 124 72 31
0.499204 1.1431 2.0371 0.13559 -0.318935 -0.938028 182 148 43
0.520404 1.15479 2.03575 0.214057 -0.303776 -0.928385 118 103 35
0.534423 1.15499 2.03751 0.158212 -0.312517 -0.936644 78 61 53
0.546606 1.15309 2.03842 0.113023 -0.261106 -0.958671 84 65 62
0.54712 1.15316 2.03831 0.11443 -0.242675 -0.963335 84 65 62
0.555975 1.16642 2.036 0.063323 -0.323668 -0.944049 55 45 31
0.562916 1.15362 2.03829 0.105029 -0.313191 -0.943865 59 47 44
0.583206 1.16896 2.03527 0.0851514 -0.321833 -0.942959 71 59 31
0.570276 1.16545 2.03581 0.111859 -0.332318 -0.936511 65 51 38
0.597154 1.16904 2.03667 0.087241 -0.315787 -0.944811 65 52 28
0.611141 1.16895 2.03781 0.0850074 -0.322793 -0.942645 75 59 40
0.629058 1.17895 2.03728 0.0803716 -0.355015 -0.931399 135 62 26
0.642221 1.17885 2.03895 0.160984 -0.41933 -0.893447 149 32 22
0.65634 1.17904 2.04133 0.13661 -0.31545 -0.939058 142 29 22
0.663408 1.18908 2.0377 0.127721 -0.375201 -0.918102 227 40 31
0.669653 1.17776 2.04301 0.104502 -0.352302 -0.930034 124 31 26
0.690979 1.18841 2.04033 0.117101 -0.454974 -0.882772 232 42 36
0.70537 1.1889 2.04266 0.111427 -0.325004 -0.939125 230 41 34
0.719432 1.18886 2.04426 0.102967 -0.314256 -0.943738 228 39 34
0.726909 1.20075 2.04153 0.0771043 -0.33349 -0.939595 238 41 35
0.741038 1.20432 2.04838 0.319751 -0.235189 -0.917848 240 43 39
0.741117 1.20339 2.04734 0.217125 -0.234816 -0.94748 240 43 39
0.75569 1.20835 2.0537 0.640381 -0.232086 -0.732153 236 50 45
0.769073 1.20949 2.05959 0.569764 -0.207392 -0.795209 100 41 29
0.790477 1.21884 2.05568 0.312332 -0.192184 -0.93033 24 24 15
0.821681 1.24012 2.10009 0.0424575 -0.846413 -0.530832 47 53 21
0.838773 1.24102 2.09581 -0.348309 -0.91152 -0.21866 70 100 41
0.856373 1.24258 2.06367 -0.270463 -0.949306 -0.160214 104 163 81
0.915733 1.25516 2.08854 0.029698 -0.985402 -0.167636 123 147 112
0.931812 1.25298 2.07003 -0.153025 -0.975941 -0.155316 137 143 133
1.08364 1.30201 2.11288 -0.450556 -0.313667 -0.83583 46 70 34
1.10089 1.2951 2.08218 -0.896829 -0.250879 -0.36436 55 90 39
1.11115 1.27601 2.03956 -0.894204 -0.273548 -0.354358 74 120 55
1.1324 1.26349 2.0009 -0.782164 -0.417737 -0.462295 92 152 73
1.15163 1.27341 2.01775 -0.604111 -0.732293 -0.31432 103 170 84
1.14619 1.26725 1.99901 -0.633101 -0.653924 -0.414206 100 165 81
1.15071 1.26838 1.99856 -0.645472 -0.676108 -0.355307 101 166 82
1.16654 1.26435 2.01116 0.0313823 -0.993242 -0.111742 115 185 94
1.18567 1.26564 1.9993 -0.158561 -0.985245 -0.0644201 116 184 94
1.19198 1.27048 1.9915 -0.583578 -0.614889 -0.530423 116 185 93
1.22663 1.2671 1.97417 -0.297803 -0.953158 -0.0529392 135 156 125
1.21611 1.26393 1.96127 -0.256061 -0.964804 0.0598851 129 176 110
1.21611 1.26393 1.96127 -0.256061 -0.964804 0.0598851 129 176 110
1.21611 1.26393 1.96127 -0.256061 -0.964804 0.0598851 129 176 110
1.23543 1.26772 1.97574 -0.359227 -0.932976 -0.0226057 141 149 138
1.24218 1.26914 1.96579 -0.832189 -0.554076 -0.0214706 142 149 138
1.26466 1.21601 1.84693 -0.269316 -0.931248 -0.245451 53 116 47
1.26543 1.21464 1.86411 -0.164591 -0.984817 -0.055185 115 149 115
1.27986 1.21386 1.85509 -0.114002 -0.992873 -0.0347502 105 151 110
1.2882 1.21508 1.8292 -0.126387 -0.974055 -0.187734 70 123 46
1.36329 1.21509 1.81035 0.059993 -0.745628 -0.663656 106 145 65
1.38595 1.22745 1.81238 0.0439515 -0.00657669 -0.999012 102 130 48
1.37693 1.21157 1.80923 -0.0931726 -0.785281 -0.612089 89 126 54
1.40169 1.22749 1.81173 0.049693 -0.0112949 -0.998701 96 118 41
1.41724 1.22693 1.81175 0.0196635 -0.0130915 -0.999721 92 109 38
1.43311 1.22692 1.81205 0.0668689 -0.0202115 -0.997557 81 97 33
1.45192 1.23261 1.82012 0.0036932 -0.0222506 -0.999746 54 70 28
1.47689 1.24843 1.82101 0.00369861 -0.182732 -0.983156 90 94 85
0.0563199 1.12016 2.12101 0.634243 -0.283581 -0.719248 27 19 16
0.0453531 1.11055 2.10915 0.590549 -0.333329 -0.734945 25 17 14
0.0686126 1.123 2.12878 0.406173 -0.296439 -0.864377 55 50 45
0.0837386 1.12465 2.13351 0.102443 -0.34922 -0.931424 173 156 131
0.100699 1.1265 2.13447 0.0776744 -0.349405 -0.933747 173 58 87
0.11623 1.12612 2.13663 0.0462488 -0.276653 -0.959856 183 125 123
0.12462 1.13876 2.13339 0.234755 -0.325836 -0.915817 178 166 142
0.138976 1.1386 2.1365 0.218083 -0.334193 -0.916927 100 164 162
0.153102 1.13887 2.14041 0.220688 -0.334162 -0.916315 65 155 177
0.161459 1.15127 2.13812 0.240338 -0.351262 -0.904905 77 141 152
0.175566 1.1511 2.14218 0.296327 -0.343212 -0.891289 72 55 39
0.174721 1.15028 2.14212 0.271195 -0.348814 -0.897096 73 60 43
0.17554 1.15093 2.14122 0.0677777 -0.328194 -0.942176 72 56 40
0.191586 1.14644 2.13868 -0.238067 -0.368294 -0.898712 34 21 15
0.190621 1.1478 2.1391 -0.188602 -0.353507 -0.916222 35 22 14
0.233704 1.13578 2.10544 0.0571784 -0.386345 -0.92058 36 41 33
0.241508 1.14631 2.10073 0.180813 -0.340081 -0.92285 61 93 62
0.255302 1.146 2.10348 0.254132 -0.338686 -0.90593 85 139 91
0.269808 1.14699 2.10753 0.259627 -0.39489 -0.881281 61 92 60
0.291978 1.15824 2.10866 0.235605 -0.399528 -0.885928 37 38 34
0.278088 1.15833 2.10479 0.235105 -0.425174 -0.874044 49 71 53
0.305511 1.15776 2.11129 0.206249 -0.416116 -0.885612 38 36 33
0.319568 1.15776 2.11448 0.322047 -0.341893 -0.882833 38 36 34
0.327814 1.1694 2.11253 0.0979193 -0.22481 -0.96947 33 30 28
0.343079 1.16812 2.11186 -0.489988 -0.241059 -0.837736 22 18 16
0.365158 1.16838 2.11666 -0.62333 -0.285174 -0.728104 10 9 8
0.382302 1.16504 2.09374 -0.508047 -0.314626 -0.80181 10 10 9
0.39245 1.16054 2.06781 -0.406372 -0.307588 -0.860379 14 13 11
0.409966 1.15205 2.047 -0.38798 -0.262959 -0.883359 38 28 17
0.432068 1.15494 2.03485 0.568703 -0.240211 -0.786687 88 44 19
0.43955 1.14204 2.03218 -0.383546 -0.260201 -0.886109 98 50 22
0.446155 1.15528 2.03212 -0.217417 -0.270117 -0.937959 108 60 30
0.464887 1.15645 2.02933 0.012642 -0.302744 -0.952988 120 67 33
0.492858 1.15403 2.03149 0.118614 -0.319321 -0.940194 132 88 26
0.478995 1.15475 2.02949 0.200024 -0.311563 -0.928934 120 67 31
0.500632 1.16586 2.029 0.174125 -0.320995 -0.930936 190 159 48
0.514883 1.16749 2.03243 0.0145026 -0.306223 -0.951849 186 164 46
0.528049 1.16638 2.0323 0.142272 -0.292 -0.945777 56 47 14
0.541874 1.16635 2.03457 0.0884867 -0.278458 -0.956364 61 49 35
0.54935 1.17741 2.03066 0.0577816 -0.459786 -0.886148 161 147 40
0.563764 1.17694 2.03087 0.0943309 -0.325706 -0.940753 158 144 41
0.583036 1.18209 2.03023 0.129866 -0.527397 -0.839635 207 187 47
0.622847 1.18932 2.03076 0.0963684 -0.469139 -0.877851 213 185 57
0.636458 1.19002 2.03337 0.126186 -0.400788 -0.907439 201 98 35
0.650309 1.19016 2.03553 0.147856 -0.405175 -0.902204 225 44 29
0.657548 1.20084 2.03155 0.122811 -0.370997 -0.920478 221 52 29
0.671109 1.20025 2.03408 0.128061 -0.411045 -0.902576 234 41 32
0.657881 1.20079 2.03178 0.125719 -0.369406 -0.920725 222 51 29
0.685199 1.2 2.0359 0.0863997 -0.450602 -0.888534 238 41 32
0.698896 1.19989 2.03704 0.0913053 -0.390805 -0.915934 240 40 33
0.708131 1.21316 2.03803 0.529593 -0.0533883 -0.84657 239 39 33
0.7343 1.21458 2.04162 0.47328 -0.228141 -0.850857 238 41 36
0.774524 1.22038 2.05249 0.255445 -0.282923 -0.924501 40 17 11
0.782582 1.22943 2.04566 -0.0266026 -0.397054 -0.91741 25 23 15
0.83227 1.25652 2.06871 -0.579812 -0.743619 -0.33294 69 98 43
0.8388 1.24733 2.07749 -0.469081 -0.84154 -0.267905 81 122 56
0.846824 1.25049 2.05503 -0.492587 -0.826547 -0.272357 91 140 66
0.875408 1.24827 2.05415 0.184249 -0.973902 -0.132543 111 176 89
0.893999 1.25596 2.04574 -0.185112 -0.953716 -0.23698 119 183 95
0.917286 1.25957 2.06945 0.0464087 -0.99313 -0.107417 123 151 110
0.931501 1.25501 2.047 -0.156156 -0.980968 -0.115396 131 141 127
1.04901 1.32738 2.13682 -0.624336 -0.649042 -0.434682 121 129 122
1.06315 1.32283 2.11434 -0.618197 -0.665035 -0.418999 76 84 74
1.07494 1.32331 2.10258 -0.796215 -0.546755 -0.259039 42 45 38
1.08375 1.31483 2.09439 -0.818119 -0.465605 -0.33748 21 27 17
1.09413 1.3056 2.07197 -0.901976 -0.282913 -0.326189 29 43 20
1.11623 1.29282 2.02586 -0.881827 -0.267553 -0.388326 56 92 40
1.12548 1.2775 1.99878 -0.858067 -0.221388 -0.463366 79 126 60
1.12498 1.27862 1.99731 -0.879421 -0.156577 -0.449559 79 127 59
1.1223 1.27757 2.0194 -0.844195 -0.300939 -0.443589 80 129 60
1.13808 1.2774 1.99116 -0.708043 -0.557595 -0.433317 88 142 70
1.16195 1.26886 1.98792 -0.548367 -0.758467 -0.352167 105 172 85
1.15471 1.26871 1.95893 -0.702787 -0.609073 -0.367588 96 154 75
1.17274 1.26878 1.97438 -0.526027 -0.80595 -0.271551 106 173 84
1.18406 1.27144 1.9651 -0.760283 -0.560839 -0.327765 112 181 90
1.1939 1.26858 1.97107 -0.233733 -0.961327 -0.145671 118 188 95
1.2001 1.26093 1.94318 -0.670949 -0.739417 0.0555884 121 190 101
1.20209 1.25593 1.93814 -0.505459 -0.857511 0.0958453 123 189 103
1.20362 1.23029 1.88868 -0.0551541 -0.998232 -0.0221427 108 176 103
1.22202 1.22739 1.85822 -0.259596 -0.957926 -0.122424 82 140 56
1.24139 1.22808 1.84717 -0.12883 0.396839 -0.908802 107 160 64
1.25396 1.22749 1.84065 -0.3757 -0.667586 -0.642789 110 160 64
1.26468 1.22605 1.83429 -0.357248 -0.734435 -0.577043 110 160 63
1.27591 1.22946 1.82814 -0.3251 -0.609754 -0.722848 111 160 61
1.27762 1.22356 1.82894 -0.317098 -0.758591 -0.5692 110 160 63
1.2893 1.22784 1.82403 -0.358742 -0.606661 -0.709413 108 156 58
1.29941 1.21827 1.82278 -0.240437 -0.807534 -0.53859 99 145 60
1.34101 1.23318 1.82837 -0.0893704 0.042748 -0.995081 108 146 54
1.35483 1.2293 1.81755 -0.0922256 -0.69512 -0.712953 108 142 52
1.3794 1.243 1.81424 -0.0175967 -0.109076 -0.993878 98 124 43
1.36996 1.22618 1.81089 0.0254327 -0.118671 -0.992608 107 139 50
1.36995 1.22731 1.81148 0.0314154 -0.00242525 -0.999503 107 138 50
1.39596 1.2453 1.81712 -0.10788 -0.101915 -0.988926 98 122 43
1.41116 1.24449 1.8143 -0.180754 0.138493 -0.973729 97 118 40
1.42937 1.2445 1.81112 0.11903 0.0120225 -0.992818 85 106 37
1.44554 1.24453 1.81409 0.190143 -0.209421 -0.95916 63 106 47
1.45526 1.26155 1.8197 -0.149331 0.142519 -0.978462 61 99 39
1.47478 1.26286 1.81859 -0.0493567 0.118102 -0.991774 85 118 82
0.0628828 1.13642 2.1241 0.234423 -0.311731 -0.920798 30 24 21
0.0768881 1.13546 2.12875 0.130734 -0.312601 -0.940845 136 136 115
0.077013 1.13678 2.12838 0.135475 -0.30809 -0.941662 136 137 115
0.0953223 1.13932 2.12936 0.0526805 -0.366236 -0.92903 144 57 68
0.10986 1.13978 2.13153 0.0851651 -0.365162 -0.92704 188 78 108
0.118348 1.15116 2.12818 0.16506 -0.301011 -0.939227 184 120 123
0.132955 1.15124 2.13089 0.232773 -0.293461 -0.927198 141 175 155
0.146911 1.15096 2.13476 0.226302 -0.32519 -0.918171 65 154 176
0.155723 1.16415 2.13384 0.221287 -0.319847 -0.921265 68 153 174
0.169964 1.16307 2.13576 0.295822 -0.335707 -0.89431 79 90 84
0.184019 1.15994 2.13614 -0.202539 -0.370636 -0.906425 53 27 18
0.201336 1.15612 2.12607 -0.598985 -0.393118 -0.697621 25 21 18
0.212222 1.16475 2.11824 -0.62857 -0.441689 -0.640165 25 29 24
0.228277 1.14975 2.10448 -0.222557 -0.504124 -0.834463 27 34 26
0.235318 1.15827 2.09561 0.153175 -0.321846 -0.934319 56 88 59
0.249386 1.15803 2.09792 0.199456 -0.316963 -0.927228 78 136 89
0.264184 1.15876 2.10147 0.236942 -0.369616 -0.898467 64 111 76
0.272248 1.17025 2.09844 0.214586 -0.31179 -0.925603 75 116 85
0.286247 1.16984 2.10246 0.305605 -0.308855 -0.900674 34 41 33
0.299626 1.17113 2.1083 0.388955 -0.343451 -0.854842 36 36 33
0.314814 1.17145 2.11136 0.225634 -0.185584 -0.956372 37 35 33
0.322233 1.18341 2.1075 0.0486908 -0.26386 -0.963331 35 34 31
0.336104 1.18022 2.10741 -0.493369 -0.281561 -0.822989 28 25 22
0.362935 1.18271 2.1026 0.318467 -0.183556 -0.929992 11 11 9
0.389125 1.17685 2.06319 -0.49665 -0.263751 -0.826907 14 13 9
0.390817 1.16865 2.06753 -0.452273 -0.305098 -0.838072 16 14 10
0.390817 1.16865 2.06753 -0.452273 -0.305098 -0.838072 16 14 10
0.390817 1.16865 2.06753 -0.452273 -0.305098 -0.838072 16 14 10
0.40024 1.16822 2.05071 -0.473032 -0.30058 -0.828186 22 19 12
0.411975 1.16241 2.02567 -0.502291 -0.15999 -0.849769 34 25 13
0.43905 1.16427 2.02534 0.410966 -0.220799 -0.884508 96 49 21
0.457867 1.16813 2.02555 -0.0235488 -0.28039 -0.959597 114 64 31
0.47226 1.16987 2.0299 0.17343 -0.211206 -0.961933 143 83 42
0.486785 1.16604 2.02685 0.213838 -0.317844 -0.923715 124 73 28
0.494412 1.17739 2.02393 0.164201 -0.330406 -0.929446 143 102 28
0.507633 1.17877 2.02649 0.242722 -0.325834 -0.913739 206 181 44
0.535399 1.17776 2.02923 0.139741 -0.326491 -0.934813 168 152 41
0.521506 1.1778 2.02723 0.152376 -0.379854 -0.91241 193 171 40
0.54307 1.18831 2.02485 0.0907867 -0.328989 -0.939959 206 184 42
0.555671 1.1863 2.0227 0.0708685 -0.622619 -0.77931 211 188 42
0.557047 1.1883 2.02618 0.0689273 -0.315156 -0.946533 210 187 42
0.571266 1.18699 2.02512 0.122115 -0.518573 -0.846268 215 192 42
0.58329 1.19163 2.01964 0.107525 -0.670019 -0.734515 219 195 43
0.595077 1.18721 2.02538 0.0748204 -0.608443 -0.790062 215 192 44
0.596776 1.18706 2.0264 0.0700861 -0.56977 -0.81881 215 192 44
0.609264 1.19215 2.02099 0.0740594 -0.695741 -0.714465 215 192 48
0.622524 1.20453 2.02554 0.122749 -0.346207 -0.930093 215 193 55
0.63043 1.20137 2.02821 0.0812124 -0.341925 -0.936211 216 193 60
0.643921 1.2009 2.0293 0.155624 -0.415092 -0.89637 205 134 46
0.644343 1.20124 2.02918 0.173537 -0.429137 -0.886412 204 134 45
0.651718 1.21201 2.02578 0.224145 -0.457112 -0.860702 208 163 54
0.652419 1.21254 2.02614 0.206237 -0.438106 -0.874945 207 160 53
0.664984 1.21149 2.0284 0.143913 -0.393187 -0.908126 212 63 27
0.665761 1.21204 2.02847 0.168164 -0.404437 -0.898973 213 62 27
0.678734 1.21134 2.03034 0.140961 -0.346429 -0.927425 233 42 31
0.692462 1.21091 2.03173 0.158749 -0.286979 -0.944691 239 40 32
0.70978 1.2277 2.02934 0.208122 -0.287683 -0.934839 239 40 34
0.721917 1.22182 2.02328 0.490584 0.111978 -0.864169 240 41 36
0.750504 1.2363 2.03306 0.424017 -0.213128 -0.880219 236 44 38
0.74286 1.2269 2.04081 0.338318 -0.25409 -0.906079 243 42 39
0.765108 1.23455 2.03741 -0.608847 -0.389285 -0.691204 117 17 13
0.838414 1.2614 2.04237 -0.837663 -0.495201 -0.230429 74 108 49
0.848363 1.25408 2.02378 -0.700693 -0.679081 -0.218811 88 131 61
0.857861 1.25323 2.04503 -0.500373 -0.834058 -0.232324 94 151 73
0.875154 1.24929 2.03298 0.0265613 -0.986743 -0.1601 110 175 88
0.859222 1.25233 2.0229 -0.532749 -0.804596 -0.262307 97 149 71
0.874886 1.25166 2.01153 -0.112713 -0.958909 -0.260364 112 173 87
0.891735 1.25618 2.03307 0.0338596 -0.984405 -0.172626 118 182 95
0.893951 1.25887 2.02512 0.108469 -0.987151 -0.117331 118 183 96
1.03578 1.33497 2.1275 -0.227283 -0.938191 -0.261036 132 140 133
1.04911 1.3395 2.12326 -0.654629 -0.563026 -0.504443 129 138 130
1.05918 1.33514 2.10265 -0.536195 -0.77176 -0.34188 133 140 135
1.08421 1.3282 2.07785 -0.805116 -0.473251 -0.357523 44 47 39
1.09512 1.32094 2.05839 -0.885943 -0.294282 -0.358474 21 25 18
1.10338 1.31671 2.0437 -0.821926 -0.44646 -0.353711 22 30 17
1.13303 1.29917 1.99267 -0.856326 -0.221571 -0.46649 49 79 33
1.14404 1.2908 1.97603 -0.813629 -0.462198 -0.352677 68 110 51
1.16798 1.27481 1.95758 -0.69333 -0.539766 -0.477438 98 161 76
1.16431 1.26738 1.93961 -0.687122 -0.695059 -0.211555 90 153 72
1.1725 1.26182 1.92114 -0.721551 -0.675457 -0.152058 92 166 82
1.17655 1.24551 1.88249 -0.468863 -0.851524 -0.234678 77 149 65
1.20063 1.2393 1.87613 -0.611135 0.00688595 -0.791496 76 137 54
1.18687 1.24419 1.86853 -0.531652 -0.610056 -0.587519 111 167 68
1.19862 1.24397 1.85691 -0.316873 -0.703157 -0.636524 118 173 67
1.22183 1.2387 1.85098 -0.37422 -0.543405 -0.751445 113 166 65
1.2108 1.23622 1.85916 -0.291364 -0.694223 -0.65815 113 169 68
1.23356 1.2398 1.84689 -0.389757 -0.435161 -0.811618 111 162 61
1.24625 1.23946 1.84074 -0.387844 -0.296522 -0.872727 110 159 59
1.25878 1.23967 1.83512 -0.399457 -0.36098 -0.842691 109 158 59
1.26584 1.23907 1.82959 -0.438613 0.0926483 -0.893888 105 154 55
1.28638 1.24528 1.82628 -0.673666 -0.154254 -0.722759 104 148 53
1.29578 1.24969 1.82708 -0.400919 0.0676443 -0.913613 104 144 50
1.3 1.22982 1.8159 -0.382812 -0.455644 -0.803644 109 150 58
1.31229 1.23025 1.81073 -0.280176 -0.455697 -0.844892 110 144 57
1.32782 1.23656 1.81522 -0.199093 0.0289178 -0.979554 100 133 47
1.34414 1.23673 1.81215 -0.455923 0.0634388 -0.887755 102 132 47
1.36231 1.24292 1.8128 -0.0665739 0.000736833 -0.997781 101 127 44
1.37304 1.26055 1.82223 -0.718784 0.190799 -0.66854 101 125 43
1.38786 1.25855 1.8162 -0.173446 0.0600945 -0.983008 99 123 42
1.43781 1.25847 1.81438 0.0726801 -0.028866 -0.996937 100 127 49
1.44599 1.27266 1.81525 -0.0116239 -0.0682335 -0.997602 70 101 42
1.44858 1.27538 1.81729 -0.0763185 -0.062356 -0.995132 65 95 42
1.46703 1.27878 1.82055 0.0558355 0.0170354 -0.998295 81 88 72
0.0464562 1.14011 2.12689 0.022104 -0.811675 -0.583691 27 18 16
0.0567022 1.14859 2.11842 0.252635 -0.318854 -0.913514 27 19 16
0.0710197 1.14861 2.12209 0.286386 -0.271444 -0.918859 68 65 58
0.0860801 1.14942 2.12723 0.117767 -0.318227 -0.940671 169 144 124
0.103046 1.15147 2.12568 0.0539681 -0.294044 -0.954267 177 54 88
0.111635 1.16356 2.12329 0.118012 -0.305728 -0.944777 188 79 109
0.127082 1.16416 2.12631 0.23545 -0.312062 -0.920424 156 163 153
0.141348 1.16398 2.12979 0.220395 -0.328066 -0.918585 80 158 171
0.155747 1.16357 2.13199 0.205486 -0.334895 -0.919577 67 153 175
0.164259 1.17521 2.1296 0.225737 -0.335424 -0.914622 88 135 139
0.163756 1.17575 2.13062 0.229484 -0.325535 -0.917259 87 136 140
0.178604 1.17441 2.13285 -0.461639 -0.326306 -0.824872 70 34 26
0.177815 1.1745 2.13184 -0.0314959 -0.344967 -0.938086 69 39 31
0.191721 1.17057 2.1255 -0.464813 -0.327636 -0.822559 39 17 12
0.208781 1.16967 2.11455 -0.58466 -0.451951 -0.673731 24 25 23
0.217601 1.16641 2.10702 -0.483175 -0.478917 -0.732926 24 29 25
0.228719 1.1704 2.09084 0.00860994 -0.429773 -0.902896 45 76 49
0.243165 1.17008 2.09265 0.218641 -0.33878 -0.915109 73 119 77
0.266035 1.18157 2.09388 0.199859 -0.326841 -0.923705 60 101 70
0.280622 1.18177 2.09621 0.173846 -0.292549 -0.940315 49 86 58
0.294981 1.18241 2.10005 0.296554 -0.358984 -0.884978 41 50 40
0.294847 1.18224 2.09965 0.247314 -0.324309 -0.91305 41 50 40
0.308666 1.18287 2.10451 0.124969 -0.394756 -0.910247 39 39 35
0.308739 1.1824 2.10464 0.127662 -0.382958 -0.914902 38 39 35
0.317379 1.1934 2.10056 0.0580387 -0.304682 -0.950684 39 42 36
0.315581 1.19501 2.10194 0.233294 -0.365181 -0.901231 40 43 37
0.329525 1.19343 2.10509 -0.0583131 -0.279155 -0.958474 31 29 26
0.345655 1.19115 2.10115 -0.543839 -0.310616 -0.779588 20 16 14
0.378178 1.19555 2.08884 -0.360907 -0.253721 -0.897425 10 10 9
0.4248 1.16424 2.02118 0.319269 -0.260033 -0.911291 65 37 19
0.417133 1.1763 2.02192 -0.500123 -0.277667 -0.820231 43 27 14
0.4506 1.18012 2.02237 -0.0686763 -0.325772 -0.942951 110 61 29
0.488066 1.18811 2.02058 -0.00290254 -0.340452 -0.940257 127 78 26
0.473243 1.18745 2.01811 0.164093 -0.34169 -0.925376 129 74 36
0.502002 1.18927 2.0219 0.176133 -0.336738 -0.924978 196 167 47
0.515305 1.18953 2.02253 0.101494 -0.393418 -0.91374 207 183 39
0.52955 1.18611 2.01927 0.0968099 -0.546936 -0.831558 206 182 40
0.53636 1.20049 2.02129 0.0104089 -0.34757 -0.937596 209 185 40
0.550716 1.19788 2.01852 0.0280157 -0.448802 -0.893192 212 188 41
0.554362 1.19561 2.00892 0.191958 -0.739926 -0.644719 213 189 41
0.564319 1.20013 2.02325 0.0974912 -0.158775 -0.98249 214 190 40
0.582482 1.21013 2.01987 0.105984 -0.354272 -0.929117 218 196 44
0.596334 1.2028 2.02235 -0.00164436 -0.349988 -0.936753 216 193 45
0.608926 1.20708 2.01535 -0.184265 -0.676742 -0.712788 215 192 49
0.638144 1.21228 2.02385 0.173844 -0.379227 -0.908826 217 196 59
0.645425 1.22271 2.0192 0.218959 -0.43639 -0.872709 217 196 57
0.646467 1.22306 2.01904 0.231706 -0.439189 -0.868001 217 196 57
0.659951 1.22289 2.02228 0.221765 -0.449806 -0.865156 213 178 57
0.660497 1.22351 2.02265 0.179395 -0.409077 -0.894692 213 178 57
0.673002 1.22322 2.02577 0.287593 -0.500678 -0.816463 205 82 31
0.681519 1.23353 2.0225 0.260118 -0.482029 -0.836652 204 100 35
0.674474 1.22383 2.02596 0.315957 -0.531598 -0.785859 207 77 30
0.684813 1.23111 2.02499 0.289488 -0.49366 -0.820058 216 63 29
0.673934 1.22376 2.02598 0.331 -0.540182 -0.77372 206 79 30
0.695002 1.23338 2.02647 0.247643 -0.438845 -0.863764 233 44 30
0.698281 1.23104 2.02964 0.27655 -0.487115 -0.828395 239 40 31
0.707284 1.2421 2.02691 0.311073 -0.480066 -0.820226 237 42 33
0.719105 1.23936 2.0274 0.203778 -0.296216 -0.93313 238 42 35
0.74404 1.24938 2.02569 0.558047 -0.00857936 -0.829765 240 42 35
0.759165 1.25163 2.03628 0.514943 -0.137217 -0.846171 207 46 41
0.848045 1.25435 2.01466 -0.785759 -0.550511 -0.281993 86 125 59
0.860931 1.25201 2.00304 -0.467561 -0.852736 -0.232868 101 152 73
0.858377 1.2527 1.99837 -0.513242 -0.814995 -0.269009 98 145 70
0.874945 1.25637 1.99393 -0.118359 -0.968393 -0.219558 111 169 86
0.893228 1.26321 1.99689 -0.22032 -0.964405 -0.146225 115 181 93
0.892617 1.26058 1.98415 0.103027 -0.980938 -0.164763 115 181 93
0.930852 1.27915 2.0103 0.0805275 -0.986094 -0.145374 126 157 113
1.03667 1.35067 2.11937 -0.628429 -0.641511 -0.439931 130 138 130
1.04377 1.34589 2.10271 -0.529082 -0.785148 -0.321891 132 139 131
1.04394 1.34196 2.09416 -0.409708 -0.884033 -0.225 133 140 132
1.05905 1.34051 2.08447 -0.323873 -0.894789 -0.307342 131 139 130
1.0715 1.3435 2.07734 -0.687183 -0.668941 -0.283369 132 141 131
1.08262 1.33978 2.06143 -0.7289 -0.588298 -0.350159 123 129 124
1.12215 1.30649 2.01002 -0.859185 -0.224828 -0.459624 38 61 27
1.14582 1.29207 1.97283 -0.820376 -0.455859 -0.345218 67 109 50
1.15611 1.28878 1.95787 -0.722333 -0.584599 -0.369431 73 122 55
1.16325 1.28024 1.92858 -0.835958 -0.524204 -0.162431 72 134 65
1.16295 1.26179 1.8749 -0.630909 -0.665156 -0.399401 97 143 57
1.17346 1.25047 1.87626 -0.616682 -0.690496 -0.378046 97 155 62
1.18397 1.25037 1.8634 -0.512403 -0.640292 -0.572249 113 168 65
1.19176 1.24589 1.8528 -0.489716 -0.781408 -0.386757 116 170 66
1.21107 1.24659 1.85037 -0.396827 -0.538812 -0.743109 116 169 64
1.20898 1.24771 1.85058 -0.397645 -0.523797 -0.753336 116 169 64
1.22634 1.248 1.84134 -0.501331 -0.556731 -0.662357 113 164 62
1.23794 1.2494 1.83772 -0.440337 -0.388034 -0.80965 107 155 55
1.25251 1.25331 1.83726 -0.375622 -0.313046 -0.872302 104 151 53
1.26475 1.25199 1.83031 -0.333301 -0.200283 -0.921302 105 151 53
1.28168 1.25173 1.81135 -0.633057 -0.00297025 -0.7741 102 143 51
