ply
format ascii 1.0
element face 0
property list uchar int vertex_indices
element vertex 861
property float x
property float y
property float z
property uchar diffuse_red
property uchar diffuse_green
property uchar diffuse_blue
end_header
2.060814e-001 -3.492922e-002 -1.464995e+000 18 15 12
2.790260e-001 -3.384143e-002 -1.517529e+000 215 214 210
2.611123e-001 -4.742155e-002 -1.501225e+000 90 93 92
2.366400e-001 -8.821835e-002 -1.479689e+000 199 201 198
2.214004e-001 -9.368302e-002 -1.470997e+000 190 192 187
2.302660e-001 -9.806508e-002 -1.475849e+000 64 64 62
2.797303e-001 -9.270692e-002 -1.513248e+000 33 32 32
2.174445e-001 -1.027136e-001 -1.466242e+000 16 18 15
2.553594e-001 -9.624724e-002 -1.499453e+000 146 144 143
2.465767e-001 -1.045974e-001 -1.487020e+000 18 21 18
2.200637e-001 -1.128674e-001 -1.466464e+000 93 92 90
2.288164e-001 -1.193329e-001 -1.470993e+000 160 156 154
-4.087275e-002 -1.562963e-001 -1.384647e+000 134 137 135
-7.914349e-002 -1.650500e-001 -1.347980e+000 127 186 192
2.774918e-001 -1.572416e-001 -1.504607e+000 123 93 91
2.913120e-001 -1.537447e-001 -1.520936e+000 161 129 121
2.847401e-001 -1.604405e-001 -1.512378e+000 172 124 122
2.610780e-001 -1.646028e-001 -1.495665e+000 160 119 113
2.293117e-001 -1.750606e-001 -1.469258e+000 118 99 98
2.201448e-001 -1.886279e-001 -1.464796e+000 34 17 0
6.142351e-002 -2.266654e-001 -1.420717e+000 27 51 33
4.207913e-002 -2.412004e-001 -1.402646e+000 18 73 30
9.586064e-002 -2.501775e-001 -1.450010e+000 39 42 32
8.852035e-002 -2.531888e-001 -1.441493e+000 64 93 57
7.982696e-002 -2.616227e-001 -1.431864e+000 86 117 92
9.595870e-002 -2.701719e-001 -1.449778e+000 94 120 99
4.040403e-001 -2.696979e-001 -1.480843e+000 120 118 17
4.729474e-001 -2.711122e-001 -1.504836e+000 37 57 0
5.026010e-001 -2.726128e-001 -1.503404e+000 56 134 48
-4.758500e-002 -3.912552e-001 -1.398797e+000 126 134 138
-7.663852e-002 -4.304840e-001 -1.415488e+000 82 69 71
4.023177e-002 -3.480143e-002 -1.425013e+000 85 170 120
2.336535e-001 -3.376009e-002 -1.483019e+000 220 221 215
2.439488e-001 -5.265175e-002 -1.483907e+000 56 61 58
2.309623e-001 -6.869652e-002 -1.478662e+000 201 204 198
2.184083e-001 -8.025007e-002 -1.464180e+000 222 220 217
2.447538e-001 -1.145716e-001 -1.483396e+000 211 210 207
4.954072e-002 -2.303365e-001 -1.409589e+000 30 57 36
1.007079e-001 -2.911280e-001 -1.455444e+000 62 140 99
2.233018e-003 4.221291e-001 -1.580615e+000 127 118 111
-1.391014e-001 2.645984e-001 -1.390392e+000 223 228 231
3.191675e-002 3.127474e-001 -1.613266e+000 127 112 97
-6.046654e-002 6.965076e-002 -1.389772e+000 54 135 164
2.296588e-001 -9.031471e-003 -1.482187e+000 38 34 31
1.741574e-002 -6.439066e-002 -1.397902e+000 55 104 75
2.200376e-001 -1.198440e-001 -1.464239e+000 213 212 211
2.701051e-001 -1.626776e-001 -1.500457e+000 178 131 127
1.744640e-001 -7.964535e-003 -1.434418e+000 209 211 208
3.657097e-002 -4.379091e-002 -1.422203e+000 94 183 129
-5.454672e-002 -1.027247e-001 -1.370047e+000 184 170 132
1.910021e-001 -1.041825e-001 -1.446521e+000 208 204 198
2.263107e-001 -1.797470e-001 -1.465343e+000 60 39 25
9.960649e-002 -2.840152e-001 -1.443949e+000 63 138 93
-1.514145e-001 2.025072e-001 -1.404275e+000 66 44 30
9.709168e-002 8.433963e-002 -1.525582e+000 215 225 235
-6.259080e-002 -1.041615e-002 -1.367747e+000 16 15 17
2.169521e-002 1.607940e-003 -1.402869e+000 68 83 77
3.681395e-002 -9.434822e-002 -1.418146e+000 90 177 118
3.951394e-001 4.288074e-001 -1.806750e+000 172 178 170
-1.445219e-001 2.443556e-001 -1.395869e+000 57 53 50
2.727901e-001 3.350570e-001 -1.624255e+000 86 121 68
3.519822e-002 1.025202e-002 -1.426308e+000 176 187 173
2.962789e-001 -5.563064e-002 -1.531634e+000 204 198 197
2.821982e-001 -6.210283e-002 -1.517882e+000 161 158 158
3.004506e-001 -6.792084e-002 -1.532533e+000 201 199 194
2.346945e-001 -1.126671e-001 -1.477048e+000 53 51 47
9.496687e-002 -2.692237e-001 -1.445435e+000 109 136 115
2.095174e-001 -1.016426e-001 -1.458753e+000 194 194 190
2.172235e-001 -1.219762e-001 -1.463151e+000 209 210 205
5.307703e-001 -1.338585e-001 -1.715630e+000 34 66 7
6.045433e-001 -2.137464e-001 -1.657491e+000 121 118 117
-2.622171e-002 4.106616e-001 -1.569006e+000 139 132 128
6.568123e-003 4.130641e-001 -1.589011e+000 126 122 113
6.363327e-002 -2.143728e-001 -1.431667e+000 31 32 26
5.878728e-002 -2.299873e-002 -1.436733e+000 12 11 9
1.848965e-001 -2.320050e-002 -1.445303e+000 97 93 92
2.888474e-001 -7.356766e-002 -1.528698e+000 55 59 53
2.778533e-001 -1.026116e-001 -1.510672e+000 208 207 205
2.523821e-001 3.491920e-003 -1.493813e+000 189 163 160
-2.295797e-001 3.862117e-001 -1.423749e+000 161 151 149
-1.892842e-002 3.710344e-001 -1.556079e+000 78 71 58
-2.138429e-001 3.307901e-001 -1.404504e+000 150 140 139
-2.237253e-001 2.590950e-001 -1.375561e+000 138 123 123
1.051083e-001 1.025172e-001 -1.559681e+000 175 82 113
-5.280703e-002 4.700242e-002 -1.394776e+000 17 114 146
-1.041029e-002 4.111201e-002 -1.437743e+000 208 115 146
1.889126e-001 1.605300e-002 -1.438847e+000 138 74 40
-6.347371e-002 1.365375e-002 -1.366676e+000 118 185 195
-4.601367e-002 9.616113e-003 -1.369615e+000 24 28 21
1.914702e-001 -2.213370e-002 -1.444700e+000 57 57 56
2.905988e-001 -3.108049e-002 -1.528309e+000 213 212 207
2.113626e-001 -8.253463e-002 -1.462855e+000 49 50 45
4.887287e-001 -1.423250e-001 -1.733144e+000 72 105 56
2.263862e-001 -1.220696e-001 -1.470342e+000 207 200 200
5.330191e-001 -1.424168e-001 -1.708204e+000 87 145 68
2.780487e-001 -2.642445e-001 -1.454215e+000 165 174 94
2.375248e-001 -3.346264e-001 -1.389599e+000 30 48 45
2.078697e-001 -3.438390e-001 -1.367699e+000 60 61 61
1.170180e-001 -3.643830e-001 -1.325977e+000 112 129 122
1.568289e-002 6.288232e-002 -1.465569e+000 183 73 107
7.532530e-004 3.919691e-003 -1.383943e+000 209 216 211
5.936363e-002 -2.740577e-001 -1.414137e+000 45 67 41
2.817924e-001 -2.871436e-001 -1.444418e+000 170 149 15
2.014414e-001 -3.434363e-001 -1.358934e+000 33 38 34
2.229488e-001 4.768679e-001 -1.724618e+000 193 211 211
2.172701e-001 4.062670e-001 -1.668401e+000 189 219 233
-3.031275e-002 4.293322e-002 -1.416187e+000 188 85 115
7.879308e-002 -2.530603e-001 -1.430407e+000 53 103 61
8.202906e-002 -2.796534e-001 -1.436340e+000 33 59 38
1.898719e-001 -2.340329e-002 -1.444874e+000 15 14 12
2.750227e-001 -8.483759e-002 -1.529436e+000 216 217 212
3.685337e-001 4.902635e-001 -1.740728e+000 173 183 164
3.848164e-001 4.702149e-001 -1.763348e+000 178 190 174
-3.066091e-002 4.110600e-001 -1.570753e+000 124 121 116
3.177028e-001 4.405890e-001 -1.738776e+000 167 177 191
2.405223e-001 3.981929e-001 -1.658848e+000 35 61 62
-3.104048e-002 3.614305e-001 -1.553390e+000 138 134 132
1.676957e-002 2.869647e-001 -1.550734e+000 175 182 166
4.659918e-001 3.267188e-001 -1.801621e+000 147 150 136
4.904686e-001 1.955218e-001 -1.833888e+000 148 161 135
-6.675307e-002 1.636821e-001 -1.618052e+000 196 115 128
-1.254758e-001 1.581356e-001 -1.683926e+000 190 111 116
-1.240062e-001 1.035228e-001 -1.329708e+000 85 165 177
2.347784e-001 1.049777e-001 -1.596106e+000 71 99 47
5.364608e-002 6.537191e-002 -1.356094e+000 174 94 125
-5.548251e-002 6.946681e-002 -1.395363e+000 66 145 169
2.617384e-001 6.660028e-002 -1.535017e+000 139 109 105
1.357130e-001 5.816346e-002 -1.528976e+000 205 217 207
1.202035e-001 5.321399e-002 -1.518626e+000 178 187 172
1.195167e-001 4.360131e-002 -1.496831e+000 100 110 99
2.055787e-001 4.373430e-002 -1.464333e+000 170 142 131
1.130083e-001 3.914397e-002 -1.487623e+000 117 123 106
8.477242e-002 3.332204e-002 -1.454818e+000 177 190 180
9.694622e-002 3.511152e-002 -1.495365e+000 60 72 59
6.070284e-002 2.960275e-002 -1.454185e+000 192 201 190
1.998650e-001 2.917484e-002 -1.461658e+000 143 81 41
8.507129e-002 2.793986e-002 -1.472384e+000 63 76 59
1.867743e-001 2.470677e-002 -1.447468e+000 126 60 25
6.631529e-002 2.314603e-002 -1.457298e+000 68 79 70
5.654096e-002 1.723470e-002 -1.440433e+000 53 70 60
3.668449e-002 1.063753e-002 -1.426502e+000 110 121 109
5.727605e-002 9.310583e-003 -1.439518e+000 142 164 155
5.454706e-003 3.904993e-003 -1.396172e+000 167 175 167
3.791430e-002 7.397403e-003 -1.425248e+000 145 158 149
5.466389e-002 2.140759e-003 -1.440292e+000 60 75 65
3.706361e-002 -9.769490e-004 -1.425242e+000 61 75 65
1.979144e-001 -1.893735e-002 -1.455108e+000 221 218 219
1.900680e-001 -2.713785e-002 -1.448355e+000 213 209 210
4.227081e-002 -3.019636e-002 -1.430048e+000 82 146 108
2.114656e-001 -2.728183e-002 -1.462523e+000 220 216 215
1.887271e-001 -4.095640e-002 -1.446412e+000 62 54 54
2.479527e-001 -4.383570e-002 -1.491976e+000 222 222 221
2.144515e-001 -5.463364e-002 -1.466727e+000 208 208 203
2.006265e-001 -5.884436e-002 -1.454747e+000 206 209 207
2.351435e-001 -6.364749e-002 -1.479343e+000 146 144 142
2.721921e-001 -7.812515e-002 -1.503789e+000 212 217 210
2.780846e-001 -8.430959e-002 -1.512606e+000 35 35 33
7.101008e-001 -1.186345e-001 -2.019081e+000 170 165 172
2.164110e-001 -9.249454e-002 -1.460008e+000 197 201 194
2.094093e-001 -1.142643e-001 -1.459513e+000 207 207 205
2.025907e-001 -1.232243e-001 -1.451117e+000 140 68 60
2.045743e-001 -1.308200e-001 -1.454011e+000 114 87 19
3.181169e-001 -1.464065e-001 -1.543627e+000 162 119 115
3.262983e-001 -1.545422e-001 -1.550420e+000 99 10 3
6.185035e-001 -1.835095e-001 -1.642561e+000 73 119 60
2.624407e-001 -1.674229e-001 -1.496862e+000 160 113 113
2.506578e-001 -1.687663e-001 -1.483230e+000 165 123 119
6.012334e-001 -2.239087e-001 -1.663200e+000 50 47 48
5.326459e-002 -2.144111e-001 -1.413014e+000 86 126 96
3.534823e-001 -2.395850e-001 -1.562358e+000 224 192 98
4.654938e-001 -2.447894e-001 -1.511223e+000 64 89 13
4.735926e-001 -2.499636e-001 -1.514733e+000 21 47 2
4.790795e-001 -2.452027e-001 -1.497654e+000 64 108 47
4.274737e-001 -2.542901e-001 -1.558964e+000 33 36 9
4.062070e-002 -2.353215e-001 -1.402773e+000 54 95 53
4.941507e-001 -2.698288e-001 -1.504309e+000 96 188 99
5.062054e-001 -2.730246e-001 -1.499103e+000 77 164 78
5.511217e-001 -2.787810e-001 -1.482031e+000 91 191 103
4.772969e-001 -2.898272e-001 -1.522826e+000 43 44 34
4.899332e-001 -2.859555e-001 -1.486890e+000 133 128 100
5.227209e-001 -2.944104e-001 -1.496116e+000 48 59 59
5.214673e-001 -2.908226e-001 -1.472494e+000 57 70 74
5.612943e-001 -3.311972e-001 -1.441221e+000 72 82 94
1.577267e-001 -3.197252e-001 -1.371920e+000 176 208 211
5.492331e-001 -3.344285e-001 -1.413617e+000 98 112 110
1.341216e-001 -3.272151e-001 -1.373844e+000 32 47 45
3.068485e-001 -3.303757e-001 -1.387268e+000 104 120 123
1.585917e-001 -3.249279e-001 -1.357663e+000 115 148 202
2.126339e-001 -3.275886e-001 -1.371004e+000 51 52 58
2.015328e-001 -3.291293e-001 -1.367194e+000 64 69 83
1.763522e-001 -3.331329e-001 -1.366321e+000 91 92 100
1.641531e-001 -3.344636e-001 -1.363751e+000 103 102 102
2.244053e-001 -3.380521e-001 -1.370842e+000 79 84 87
3.255411e-001 -3.495626e-001 -1.377214e+000 123 163 144
2.060056e-001 -3.486140e-001 -1.364886e+000 16 15 11
2.887079e-001 -3.570534e-001 -1.378366e+000 185 197 198
1.808545e-001 -3.539288e-001 -1.352456e+000 16 23 18
1.379820e-001 -3.578723e-001 -1.343168e+000 109 126 120
-5.962801e-002 -3.889304e-001 -1.411943e+000 128 125 130
-4.771437e-002 -3.967218e-001 -1.417199e+000 129 128 136
4.780102e-001 -3.818105e-001 -1.328005e+000 11 20 9
4.326824e-001 -3.787664e-001 -1.302395e+000 26 26 26
-7.594043e-002 -4.091779e-001 -1.411195e+000 89 85 83
4.578226e-001 -3.914780e-001 -1.317299e+000 77 80 69
4.531197e-001 -3.888687e-001 -1.317651e+000 54 53 48
-6.717942e-002 -4.175714e-001 -1.413961e+000 117 113 117
1.623941e-001 -3.893394e-001 -1.289207e+000 26 42 31
3.890483e-001 -3.957444e-001 -1.297951e+000 88 83 77
3.676436e-001 -3.977316e-001 -1.291254e+000 88 85 80
3.240286e-001 -4.032418e-001 -1.282403e+000 82 76 70
3.025415e-001 -4.045106e-001 -1.272867e+000 84 81 73
3.249455e-001 -4.080836e-001 -1.278600e+000 119 151 140
1.885915e-001 -4.060981e-001 -1.265410e+000 132 155 141
2.680479e-001 -4.147249e-001 -1.283291e+000 31 39 30
-2.267350e-001 2.205881e-001 -1.371585e+000 149 134 130
8.060271e-002 2.661426e-002 -1.446065e+000 53 67 50
3.618648e-002 -9.414686e-003 -1.428919e+000 126 140 128
2.475091e-001 -9.542317e-003 -1.501592e+000 47 17 18
2.069024e-001 -1.360976e-002 -1.466772e+000 39 33 31
2.464798e-001 -1.792516e-002 -1.494275e+000 73 35 35
1.688390e-002 -6.358397e-002 -1.400775e+000 56 105 76
2.048779e-001 -8.111505e-002 -1.456505e+000 207 208 206
-6.024161e-002 -9.151444e-002 -1.373575e+000 206 180 149
2.362475e-001 -1.157837e-001 -1.476372e+000 29 24 21
1.920900e-001 -1.175416e-001 -1.453669e+000 213 204 196
2.860640e-001 -1.625576e-001 -1.557318e+000 189 146 141
3.509516e-001 -2.330639e-001 -1.571098e+000 196 63 18
8.685660e-002 -2.549383e-001 -1.441940e+000 104 139 98
1.918308e-001 -3.446554e-001 -1.364130e+000 108 102 84
2.322608e-001 3.954024e-001 -1.671180e+000 31 39 43
4.122126e-002 3.040990e-001 -1.626132e+000 208 238 191
3.517781e-001 2.827142e-001 -1.728583e+000 227 111 174
2.911901e-001 2.640497e-001 -1.667018e+000 103 0 0
3.206247e-001 2.664852e-001 -1.679170e+000 216 95 157
-1.627120e-001 1.859674e-001 -1.383624e+000 196 211 172
1.723242e-001 1.295737e-001 -1.612130e+000 22 55 32
2.773242e-001 6.871146e-002 -1.513019e+000 226 192 183
8.334034e-002 2.818774e-002 -1.432998e+000 48 62 48
1.063760e-001 1.183467e-002 -1.418924e+000 47 36 29
5.621556e-002 5.106287e-003 -1.438335e+000 140 159 148
3.492190e-002 -7.493173e-003 -1.417501e+000 136 150 139
2.471066e-001 -1.428674e-002 -1.484671e+000 58 12 12
2.036952e-001 -4.031243e-002 -1.452053e+000 215 219 218
2.448594e-001 -9.636798e-002 -1.488096e+000 34 35 33
5.193559e-001 -1.270404e-001 -1.727281e+000 106 158 78
2.050020e-001 -1.346197e-001 -1.453218e+000 103 81 28
2.325380e-001 -1.750944e-001 -1.470683e+000 124 88 86
-8.285968e-002 -1.624579e-001 -1.351723e+000 127 168 169
2.731138e-001 -1.807076e-001 -1.512803e+000 202 159 65
3.661324e-001 -2.253338e-001 -1.569943e+000 49 20 11
4.666383e-001 -2.598054e-001 -1.510080e+000 236 239 89
4.825455e-001 -2.756756e-001 -1.522984e+000 19 38 4
5.050187e-001 -2.716804e-001 -1.490566e+000 77 164 80
5.434397e-001 -2.844266e-001 -1.520046e+000 103 197 109
4.998873e-001 -3.010806e-001 -1.475846e+000 87 138 123
2.058369e-001 -3.213029e-001 -1.409874e+000 133 156 204
2.992415e-002 3.542100e-001 -1.594136e+000 117 107 100
-1.470960e-002 3.262383e-001 -1.551769e+000 229 237 240
-1.432758e-001 1.986287e-001 -1.411364e+000 73 59 34
-1.211202e-001 1.970268e-001 -1.401539e+000 223 237 235
1.701198e-001 1.404399e-001 -1.620614e+000 28 65 36
2.698281e-001 5.789261e-002 -1.533378e+000 217 221 214
7.132453e-003 -1.165270e-002 -1.392567e+000 154 174 163
2.379316e-001 -5.810621e-002 -1.471701e+000 110 115 111
2.365961e-001 -8.875488e-002 -1.467834e+000 57 54 50
-6.644848e-002 -2.152784e-001 -1.356675e+000 201 175 156
5.566909e-001 -3.159339e-001 -1.451718e+000 100 120 138
-1.159169e-001 2.036657e-001 -1.401491e+000 227 235 237
-1.558769e-001 1.088225e-001 -1.313101e+000 204 212 178
9.315765e-002 2.302666e-002 -1.458458e+000 200 188 155
2.076685e-001 -2.031519e-002 -1.496542e+000 85 83 78
2.686471e-001 -1.838975e-001 -1.501257e+000 217 193 49
6.721831e-002 -2.460332e-001 -1.421801e+000 90 165 106
-1.140498e-001 2.104515e-001 -1.407971e+000 227 234 238
5.628996e-002 -1.780274e-001 -1.429641e+000 100 163 101
3.337385e-001 5.208379e-001 -1.720560e+000 158 175 167
-2.532073e-001 3.900013e-001 -1.431121e+000 130 115 117
-2.100830e-002 4.324707e-001 -1.573254e+000 120 122 118
-2.107495e-002 4.269912e-001 -1.570919e+000 116 111 110
-2.933474e-002 4.206226e-001 -1.566808e+000 139 140 135
-2.194857e-001 3.583364e-001 -1.416574e+000 126 117 118
-2.276152e-001 3.453732e-001 -1.406841e+000 131 117 121
2.714263e-001 4.349434e-001 -1.733318e+000 87 95 82
3.226616e-001 4.403728e-001 -1.756689e+000 200 219 231
-2.117653e-001 3.391065e-001 -1.409046e+000 117 106 107
3.259141e-001 4.379443e-001 -1.741865e+000 62 88 93
2.347354e-001 4.173455e-001 -1.683464e+000 180 196 206
3.178644e-001 4.355814e-001 -1.727065e+000 59 83 88
-2.278634e-001 3.254604e-001 -1.410247e+000 90 72 73
-2.359082e-001 3.091885e-001 -1.408602e+000 92 68 62
3.780899e-001 4.176079e-001 -1.794682e+000 191 214 205
3.818647e-001 4.077779e-001 -1.782625e+000 195 222 214
5.595512e-001 4.338069e-001 -1.927361e+000 53 44 56
-2.136042e-001 2.957504e-001 -1.393449e+000 158 152 152
4.012138e-001 3.849362e-001 -1.797146e+000 189 207 191
2.649515e-002 3.082039e-001 -1.623831e+000 96 95 89
4.081554e-001 3.820733e-001 -1.800689e+000 159 176 158
5.894578e-002 3.073630e-001 -1.636125e+000 150 140 130
4.049564e-001 3.717954e-001 -1.802404e+000 198 216 208
3.891701e-001 3.350625e-001 -1.854153e+000 166 194 172
4.206895e-001 3.538477e-001 -1.804884e+000 121 136 111
-2.383459e-001 2.320488e-001 -1.395182e+000 138 127 131
4.299259e-001 3.534568e-001 -1.797973e+000 182 199 187
4.204306e-001 3.345223e-001 -1.815755e+000 184 200 183
4.914212e-001 3.379417e-001 -1.808299e+000 194 205 200
4.270072e-001 3.135130e-001 -1.811253e+000 182 202 191
5.837858e-001 3.260706e-001 -1.986990e+000 87 86 84
4.778900e-001 3.183882e-001 -1.797316e+000 175 186 180
-2.490300e-001 1.817671e-001 -1.369386e+000 117 98 90
5.929580e-001 3.096759e-001 -1.988186e+000 90 93 86
4.398284e-001 2.949991e-001 -1.809186e+000 164 185 170
5.935836e-001 3.032406e-001 -1.997074e+000 44 46 40
4.529893e-001 2.709215e-001 -1.806593e+000 151 167 143
3.513361e-001 2.622537e-001 -1.686212e+000 252 143 218
4.762826e-001 2.788992e-001 -1.795060e+000 197 217 211
3.835793e-001 2.270180e-001 -1.860886e+000 150 185 88
4.663786e-001 2.605161e-001 -1.798537e+000 116 129 109
4.736907e-001 2.590248e-001 -1.799908e+000 177 194 188
3.729745e-001 2.036836e-001 -1.868366e+000 74 138 59
4.847710e-001 2.202302e-001 -1.818785e+000 120 130 105
5.601559e-001 2.185629e-001 -1.917871e+000 207 210 208
5.574565e-001 2.071528e-001 -1.914387e+000 119 87 71
4.884346e-001 1.956626e-001 -1.839004e+000 159 174 151
3.656557e-001 1.485243e-001 -1.837079e+000 194 230 106
-1.017081e-001 1.121203e-001 -1.352315e+000 181 106 109
3.607469e-001 1.448067e-001 -1.829846e+000 62 108 16
-1.514662e-001 9.699455e-002 -1.309716e+000 181 149 125
5.520046e-001 1.524586e-001 -1.934503e+000 177 185 176
4.654834e-001 1.424333e-001 -1.842129e+000 60 116 51
5.138979e-001 1.341433e-001 -1.930493e+000 86 80 67
5.219782e-001 1.359595e-001 -1.932457e+000 123 108 92
5.318756e-001 1.311953e-001 -1.931174e+000 126 115 105
6.430022e-001 1.449617e-001 -2.023635e+000 141 138 145
6.452653e-001 1.350645e-001 -2.024363e+000 112 106 113
1.774935e-001 9.614503e-002 -1.588782e+000 112 148 126
-6.745859e-002 7.006487e-002 -1.381552e+000 36 129 157
-5.765405e-002 6.720347e-002 -1.388292e+000 44 136 161
1.966972e-001 7.546739e-002 -1.585965e+000 185 185 159
1.322553e-001 5.143934e-002 -1.528460e+000 47 57 43
6.381517e-002 3.021276e-002 -1.450759e+000 140 152 137
2.881739e-001 7.201024e-002 -1.531432e+000 182 168 148
1.356706e-002 1.171819e-002 -1.401388e+000 154 165 153
-2.251029e-002 7.202626e-003 -1.359098e+000 87 104 86
1.064528e-002 5.694557e-003 -1.391395e+000 128 142 133
3.616948e-001 8.594864e-002 -1.515851e+000 138 204 114
4.430185e-001 9.879706e-002 -1.538675e+000 63 127 44
2.786716e-002 -1.276588e-002 -1.417573e+000 84 99 91
4.152290e-001 8.035328e-002 -1.521676e+000 84 157 59
2.653192e-001 2.217374e-003 -1.512283e+000 127 9 1
2.484031e-001 -2.275189e-003 -1.497025e+000 188 181 181
2.069727e-001 -1.441828e-002 -1.464102e+000 69 69 71
2.160214e-001 -1.479259e-002 -1.470641e+000 156 156 152
2.569871e-001 -1.096629e-002 -1.502513e+000 229 44 38
2.743665e-001 -1.344490e-002 -1.516418e+000 153 13 11
2.036967e-001 -1.916511e-002 -1.457953e+000 17 15 16
2.282302e-001 -2.141024e-002 -1.476963e+000 34 33 33
2.479000e-001 -2.066241e-002 -1.495225e+000 77 14 10
2.536548e-001 -2.032723e-002 -1.496610e+000 158 49 47
2.094480e-001 -2.491438e-002 -1.465573e+000 209 212 209
2.300422e-001 -2.688071e-002 -1.480240e+000 22 23 23
2.308310e-001 -2.849607e-002 -1.485042e+000 49 48 50
2.189864e-001 -3.119579e-002 -1.470467e+000 20 20 21
2.371981e-001 -2.971701e-002 -1.486570e+000 94 87 80
6.513429e-001 -5.986770e-002 -1.960190e+000 183 192 189
2.651104e-001 -3.791328e-002 -1.504188e+000 183 184 181
2.343450e-001 -4.665292e-002 -1.474524e+000 173 176 167
6.691162e-001 -7.419224e-002 -1.974498e+000 126 133 137
2.780395e-001 -5.280491e-002 -1.516988e+000 88 87 88
2.054245e-001 -5.838625e-002 -1.459126e+000 43 48 42
2.738575e-001 -5.424820e-002 -1.513039e+000 24 21 23
6.751622e-001 -8.897643e-002 -2.003700e+000 168 169 167
2.566502e-001 -5.986920e-002 -1.497215e+000 95 96 91
2.135321e-001 -6.826397e-002 -1.468494e+000 25 23 24
2.349471e-001 -6.351945e-002 -1.480118e+000 125 125 121
6.844202e-001 -8.548017e-002 -1.976784e+000 98 103 103
2.680018e-001 -6.477447e-002 -1.509139e+000 211 212 209
6.783076e-001 -1.009567e-001 -1.984292e+000 104 90 79
2.429228e-001 -7.347165e-002 -1.488015e+000 219 217 215
2.802551e-001 -7.463758e-002 -1.515831e+000 109 116 109
2.692779e-001 -7.775525e-002 -1.504871e+000 183 190 182
2.578562e-001 -8.150710e-002 -1.500409e+000 199 203 201
3.033074e-001 -8.075912e-002 -1.533097e+000 163 164 164
2.770709e-001 -8.781796e-002 -1.514399e+000 44 41 41
3.019437e-001 -8.732282e-002 -1.531305e+000 93 94 92
2.912116e-001 -9.491922e-002 -1.523654e+000 78 84 80
3.056430e-001 -9.338147e-002 -1.535398e+000 196 199 194
2.872043e-001 -9.965258e-002 -1.518056e+000 180 179 177
2.452772e-001 -1.029359e-001 -1.485668e+000 25 24 20
2.635260e-001 -1.075824e-001 -1.500748e+000 216 218 217
2.749243e-001 -1.046122e-001 -1.509491e+000 202 198 200
2.548029e-001 -1.126199e-001 -1.491921e+000 138 136 136
1.950192e-001 -1.227424e-001 -1.442479e+000 200 182 170
2.042620e-001 -1.177318e-001 -1.445981e+000 177 158 52
5.018592e-001 -1.446755e-001 -1.728541e+000 69 113 50
-6.257653e-002 -2.066930e-001 -1.351065e+000 197 169 149
3.188745e-001 -1.459913e-001 -1.541269e+000 164 130 126
3.039498e-001 -1.491945e-001 -1.526902e+000 123 96 92
3.072036e-001 -1.488633e-001 -1.533334e+000 137 113 110
3.277414e-001 -1.542509e-001 -1.546338e+000 113 12 3
5.222892e-002 -2.118563e-001 -1.414399e+000 77 114 88
2.511463e-001 -1.674759e-001 -1.487627e+000 143 116 107
2.794848e-001 -1.632720e-001 -1.501764e+000 169 129 128
4.420060e-002 -2.188622e-001 -1.403523e+000 23 70 33
5.577072e-002 -2.206404e-001 -1.415256e+000 86 128 98
2.723065e-001 -1.777774e-001 -1.500717e+000 160 120 36
6.596944e-001 -1.394765e-001 -1.626078e+000 52 125 58
3.565366e-001 -2.349636e-001 -1.568305e+000 210 53 40
6.458181e-001 -1.480409e-001 -1.632822e+000 91 172 98
3.608194e-001 -2.362040e-001 -1.571169e+000 213 119 107
6.219132e-001 -1.629400e-001 -1.630678e+000 82 165 92
6.320039e-001 -1.540682e-001 -1.623135e+000 95 193 110
1.046879e-001 -2.894844e-001 -1.450690e+000 63 129 87
-4.351651e-003 -3.077483e-001 -1.375511e+000 112 148 165
3.507643e-002 -2.956853e-001 -1.388836e+000 40 40 37
6.079374e-001 -2.158087e-001 -1.666403e+000 117 130 120
4.591884e-001 -2.189247e-001 -1.536771e+000 93 120 63
2.194782e-001 -2.879035e-001 -1.437849e+000 210 215 115
7.999055e-001 -1.848253e-001 -1.697745e+000 125 155 78
4.604860e-001 -2.483725e-001 -1.527759e+000 143 171 64
1.126514e+000 -6.826895e-001 -2.879565e+000 76 60 72
2.288436e-001 -3.012033e-001 -1.434874e+000 68 59 1
-3.507311e-002 -4.181959e-001 -1.428402e+000 69 67 68
1.567793e-001 -3.175263e-001 -1.371605e+000 185 208 226
-4.547854e-002 -4.425707e-001 -1.434767e+000 72 66 68
1.543217e-001 -3.284454e-001 -1.367465e+000 75 107 161
2.031839e-001 -3.125771e-001 -1.379842e+000 94 127 167
4.817537e-001 -2.658485e-001 -1.511500e+000 66 158 66
2.488939e-001 -3.196351e-001 -1.413390e+000 93 118 108
1.754187e-001 -3.256911e-001 -1.366294e+000 94 126 169
2.700801e-001 -3.158620e-001 -1.420120e+000 103 137 123
2.266195e-001 -3.276071e-001 -1.401419e+000 103 115 108
2.061514e-001 -3.200322e-001 -1.367451e+000 130 160 201
4.641523e-001 -2.884479e-001 -1.512578e+000 31 25 11
1.951696e-001 -3.308192e-001 -1.366237e+000 49 57 84
2.066251e-001 -3.285791e-001 -1.366114e+000 57 60 76
2.134385e-001 -3.258959e-001 -1.366209e+000 47 47 55
2.490314e-001 -3.287720e-001 -1.398092e+000 41 53 53
5.031695e-001 -2.804305e-001 -1.503650e+000 102 205 119
2.904067e-001 -3.198697e-001 -1.400123e+000 66 69 69
1.412057e-001 -3.559508e-001 -1.345472e+000 106 114 109
1.118037e-001 -3.683319e-001 -1.325787e+000 47 42 45
3.054461e-001 -3.279227e-001 -1.402191e+000 106 124 121
5.195749e-001 -2.714098e-001 -1.468500e+000 107 194 126
1.235590e-001 -3.687505e-001 -1.321358e+000 115 130 127
2.133136e-001 -3.513216e-001 -1.360351e+000 97 112 103
2.526303e-001 -3.371136e-001 -1.370593e+000 63 71 82
4.020219e-001 -3.096546e-001 -1.430848e+000 42 52 51
2.633218e-001 -3.408249e-001 -1.369435e+000 66 77 74
1.350574e-001 -3.682065e-001 -1.313189e+000 56 72 64
1.567105e-001 -3.693325e-001 -1.325016e+000 101 120 110
-2.492551e-001 4.142578e-001 -1.443671e+000 77 62 65
3.568197e-001 5.064661e-001 -1.756991e+000 134 145 128
-3.081457e-002 3.700404e-001 -1.548945e+000 113 110 107
-2.112739e-001 3.355426e-001 -1.404114e+000 161 157 156
3.666638e-001 4.332940e-001 -1.785024e+000 157 171 158
-1.586113e-002 3.375351e-001 -1.556145e+000 47 38 34
-2.997221e-003 3.291855e-001 -1.550566e+000 213 209 208
4.502379e-001 3.826591e-001 -1.796070e+000 191 200 189
4.221814e-001 3.350037e-001 -1.808993e+000 194 212 195
3.750917e-001 2.427013e-001 -1.848317e+000 79 131 59
4.977293e-001 2.247609e-001 -1.856058e+000 122 122 116
1.730401e-002 5.956791e-002 -1.454840e+000 142 124 146
2.700103e-003 2.117130e-003 -1.392927e+000 192 202 195
5.780476e-001 2.430129e-002 -1.836905e+000 27 35 10
2.115109e-001 -1.511248e-002 -1.460344e+000 24 25 27
2.391964e-001 -1.788635e-002 -1.486178e+000 215 214 213
2.262653e-001 -3.464384e-002 -1.470324e+000 208 214 208
2.312881e-001 -5.210368e-002 -1.478647e+000 200 203 194
1.912441e-001 -5.923465e-002 -1.448014e+000 19 19 19
2.108950e-001 -5.985830e-002 -1.466449e+000 216 222 216
2.820102e-001 -6.051156e-002 -1.518004e+000 218 223 222
2.397115e-001 -6.788423e-002 -1.479780e+000 192 195 187
2.587822e-001 -6.599940e-002 -1.500419e+000 22 26 25
2.930930e-001 -7.076256e-002 -1.523840e+000 217 219 216
3.012491e-001 -9.528449e-002 -1.529476e+000 218 215 212
1.868468e-001 -1.249967e-001 -1.472682e+000 203 198 194
3.513750e-001 -2.301014e-001 -1.566890e+000 230 45 28
3.463252e-001 -2.415976e-001 -1.568740e+000 221 193 70
3.463968e-001 -2.535790e-001 -1.570095e+000 74 52 5
3.099012e-001 -2.726811e-001 -1.481493e+000 242 245 96
2.290864e-001 -3.002395e-001 -1.426427e+000 32 26 7
2.507441e-001 -3.226208e-001 -1.409815e+000 108 128 123
3.692401e-001 4.931538e-001 -1.745362e+000 157 172 163
3.801826e-001 4.745748e-001 -1.837599e+000 159 170 155
1.137817e-001 4.193792e-001 -1.617987e+000 74 62 58
-3.630013e-002 3.815540e-001 -1.565385e+000 145 146 143
-1.913341e-001 3.178584e-001 -1.380468e+000 89 74 71
2.616770e-002 3.569459e-001 -1.599034e+000 128 124 113
4.235917e-001 3.478558e-001 -1.800411e+000 119 131 104
-1.657595e-001 2.407380e-001 -1.412770e+000 72 59 54
3.938728e-002 1.969735e-001 -1.580033e+000 205 221 181
4.629635e-001 2.737289e-001 -1.799310e+000 129 148 134
5.001231e-001 2.547081e-001 -1.887326e+000 103 107 99
5.094771e-001 2.374477e-001 -1.925614e+000 71 65 57
5.004674e-001 2.199648e-001 -1.867088e+000 116 117 108
5.534266e-001 2.097969e-001 -1.930208e+000 80 67 51
4.881051e-001 1.962494e-001 -1.833940e+000 143 151 130
5.151787e-001 1.644653e-001 -1.924221e+000 99 97 86
5.263214e-001 1.285283e-001 -1.982510e+000 48 47 31
4.756162e-001 1.409617e-001 -1.834017e+000 68 128 54
-6.782622e-002 6.821398e-002 -1.381775e+000 11 97 123
-5.060546e-002 1.866925e-002 -1.364733e+000 203 202 191
-5.363518e-002 9.036963e-003 -1.358245e+000 38 64 79
2.832060e-001 6.857545e-002 -1.538144e+000 210 186 172
1.364732e-002 8.286447e-003 -1.403321e+000 97 109 95
7.033368e-002 4.800460e-003 -1.422143e+000 20 21 17
1.717122e-001 -5.496382e-003 -1.430444e+000 210 206 202
1.936781e-001 -5.895095e-002 -1.451912e+000 14 15 18
2.764089e-001 -4.846116e-002 -1.510932e+000 33 28 29
2.049442e-001 -7.374689e-002 -1.461428e+000 206 209 203
-7.985054e-002 -1.579089e-001 -1.344566e+000 119 180 184
2.005458e-001 -1.232560e-001 -1.492161e+000 173 175 173
2.476290e-001 -1.130572e-001 -1.487480e+000 211 209 206
5.600142e-001 -1.196540e-001 -1.749608e+000 88 78 67
2.041544e-001 -1.407726e-001 -1.449639e+000 215 195 72
3.233553e-001 -1.555615e-001 -1.550457e+000 56 8 1
2.870474e-001 -1.576400e-001 -1.494018e+000 35 14 13
2.219438e-001 -1.860358e-001 -1.464584e+000 33 24 5
3.548742e-002 -2.317489e-001 -1.400119e+000 105 162 124
4.967177e-002 -2.277413e-001 -1.405694e+000 50 96 64
-4.433041e-002 -3.241220e-001 -1.381879e+000 168 60 83
6.047538e-001 -2.226897e-001 -1.649992e+000 23 22 20
2.059639e-001 -3.007656e-001 -1.415047e+000 121 120 116
1.090539e-001 5.083711e-001 -1.683223e+000 144 144 137
4.051778e-001 4.335012e-001 -1.788573e+000 123 123 103
4.848934e-001 3.801571e-001 -1.833852e+000 173 177 173
4.326312e-001 3.178692e-001 -1.823960e+000 160 181 176
4.584435e-001 3.292997e-001 -1.808651e+000 110 116 100
2.823610e-001 2.645342e-001 -1.675694e+000 87 1 0
2.639710e-001 2.549147e-001 -1.667064e+000 109 143 77
4.761989e-001 1.830302e-001 -1.796268e+000 123 178 94
1.997987e-001 1.979456e-002 -1.468315e+000 128 79 50
1.958028e-001 -1.026813e-001 -1.467073e+000 29 28 26
2.756215e-001 -8.787801e-002 -1.481100e+000 71 73 69
5.489889e-001 -1.375399e-001 -1.708779e+000 102 174 86
4.454016e-002 4.513612e-001 -1.609683e+000 145 140 134
3.035311e-002 3.491443e-001 -1.612685e+000 125 114 102
3.892397e-001 4.176588e-001 -1.777443e+000 189 207 198
-1.579956e-002 3.362442e-001 -1.572628e+000 70 57 47
5.511674e-004 2.986988e-001 -1.580012e+000 177 175 162
-1.345742e-001 2.621656e-001 -1.392338e+000 214 216 220
-1.581487e-001 2.322261e-001 -1.400493e+000 66 47 35
1.271964e-001 2.270688e-001 -1.622551e+000 194 231 187
2.749862e-001 2.586873e-001 -1.642835e+000 121 164 88
5.073565e-001 2.464529e-001 -1.900941e+000 90 92 85
1.650133e-001 1.155745e-001 -1.590656e+000 230 242 239
-1.285600e-001 -7.511079e-003 -1.328142e+000 182 113 138
-6.164354e-002 -1.071550e-001 -1.336600e+000 169 188 149
4.097705e-002 -9.936361e-002 -1.422543e+000 87 173 114
5.038192e-001 -1.214257e-001 -1.738958e+000 99 161 77
2.251959e-001 -1.715098e-001 -1.482694e+000 18 19 15
5.390451e-001 2.244726e-001 -1.872658e+000 173 166 156
1.702030e-001 1.721328e-001 -1.623038e+000 20 20 20
1.998319e-001 1.600554e-001 -1.676857e+000 114 189 94
4.602778e-001 1.881561e-001 -1.863312e+000 21 32 15
3.994447e-001 1.578323e-001 -1.769542e+000 118 180 94
4.607296e-001 1.452381e-001 -1.872127e+000 95 155 82
2.485629e-001 4.585468e-002 -1.532884e+000 219 220 213
-1.901781e-002 4.254697e-001 -1.567079e+000 118 119 111
9.111914e-002 4.421051e-001 -1.644416e+000 196 208 203
-3.268222e-002 3.808319e-001 -1.553667e+000 132 132 127
1.615687e-001 3.942649e-001 -1.624659e+000 130 126 120
2.465315e-001 4.080579e-001 -1.679215e+000 201 232 232
-1.663655e-001 3.126509e-001 -1.367877e+000 173 169 168
-2.059502e-001 3.064110e-001 -1.393638e+000 156 146 150
-2.169136e-002 3.387598e-001 -1.566389e+000 65 53 44
-1.402146e-001 2.664841e-001 -1.388995e+000 229 227 230
4.077121e-001 3.420174e-001 -1.780817e+000 158 178 157
4.332883e-001 3.060797e-001 -1.811569e+000 147 167 154
3.118309e-001 2.658824e-001 -1.679989e+000 230 103 155
3.799116e-001 2.164616e-001 -1.855024e+000 59 109 21
5.809426e-001 2.289284e-001 -1.948812e+000 144 141 136
5.596795e-001 2.196930e-001 -1.912634e+000 205 211 204
6.153110e-001 2.282682e-001 -2.014623e+000 77 71 73
4.897390e-001 1.761360e-001 -1.848992e+000 52 71 27
1.061995e-001 1.076376e-001 -1.562753e+000 209 100 135
8.004855e-002 9.458553e-002 -1.534275e+000 56 144 167
1.661342e-001 9.172126e-002 -1.370502e+000 179 87 114
3.283986e-002 7.433051e-002 -1.487139e+000 59 137 160
3.763948e-001 8.041503e-002 -1.097888e+000 104 150 79
-3.084862e-003 5.783889e-002 -1.442589e+000 81 168 193
5.975640e-002 6.902484e-002 -1.451318e+000 113 148 175
1.904802e-001 8.446877e-002 -1.581766e+000 80 91 89
-1.472451e-001 4.606800e-002 -1.596592e+000 62 139 164
-2.760997e-002 4.845915e-002 -1.420578e+000 187 81 118
-3.258388e-002 4.389309e-002 -1.416218e+000 172 77 105
-4.692260e-002 3.465994e-002 -1.397094e+000 61 144 172
2.653634e-001 7.065774e-002 -1.543119e+000 38 34 16
1.464245e-001 5.491223e-002 -1.530782e+000 84 92 82
1.141804e-001 3.466909e-002 -1.433392e+000 63 75 65
2.004272e-001 2.940094e-002 -1.459452e+000 167 100 57
-2.477054e-003 6.166232e-004 -1.387614e+000 168 176 168
1.643965e-001 1.834822e-002 -1.439807e+000 130 69 32
2.057679e-002 -1.967289e-003 -1.410255e+000 82 92 85
1.901819e-001 1.554039e-002 -1.451105e+000 136 69 36
1.754553e-001 1.145881e-002 -1.442405e+000 170 98 58
1.723676e-001 9.503952e-003 -1.435973e+000 159 92 55
1.646053e-001 7.283615e-003 -1.429509e+000 144 78 39
1.962409e-001 -3.067033e-002 -1.451262e+000 47 45 48
2.160922e-001 -3.339973e-002 -1.468555e+000 29 29 27
2.357174e-001 -3.244944e-002 -1.484255e+000 212 195 193
2.468712e-001 -4.329959e-002 -1.493270e+000 211 214 207
2.328976e-001 -4.878100e-002 -1.472340e+000 205 207 203
2.591385e-001 -6.135956e-002 -1.494530e+000 116 114 115
2.104935e-001 -8.196675e-002 -1.462713e+000 43 39 36
2.187781e-001 -8.208358e-002 -1.465726e+000 217 219 219
2.875448e-001 -7.248688e-002 -1.505645e+000 22 22 18
2.238910e-001 -9.188503e-002 -1.467753e+000 168 170 164
2.211321e-001 -1.086045e-001 -1.470563e+000 219 221 216
2.268603e-001 -1.081064e-001 -1.477270e+000 217 217 215
2.698564e-001 -1.609011e-001 -1.500096e+000 145 115 116
2.725299e-001 -1.655197e-001 -1.503308e+000 159 117 122
2.422346e-001 -1.754807e-001 -1.478441e+000 133 93 92
4.852026e-002 -2.001318e-001 -1.410646e+000 55 89 46
9.572001e-002 -2.520828e-001 -1.450519e+000 58 60 41
3.475730e-001 -2.589511e-001 -1.481339e+000 165 177 123
3.211749e-001 -2.628690e-001 -1.470337e+000 213 228 136
3.369499e-001 -2.620901e-001 -1.469252e+000 97 109 60
3.894387e-001 -2.566784e-001 -1.480230e+000 65 83 0
3.246284e-001 -2.713404e-001 -1.458128e+000 85 93 17
2.196203e-001 -2.853784e-001 -1.439927e+000 217 217 128
3.806510e-001 -2.644719e-001 -1.474654e+000 60 77 15
6.971626e-002 -3.066179e-001 -1.422643e+000 80 148 102
1.867773e-001 -2.932724e-001 -1.439630e+000 90 58 34
2.121579e-001 -2.911736e-001 -1.441365e+000 17 20 0
3.333730e-001 -2.742333e-001 -1.462559e+000 42 53 8
3.776589e-001 -2.742178e-001 -1.473249e+000 77 74 7
3.246493e-001 -2.828806e-001 -1.452777e+000 80 77 13
2.154974e-001 -3.056684e-001 -1.414618e+000 28 25 18
3.220487e-001 -3.058629e-001 -1.408172e+000 75 96 92
1.823285e-001 -3.254143e-001 -1.372365e+000 149 182 218
1.538068e-001 -3.368146e-001 -1.367974e+000 72 69 69
1.904155e-001 -3.304134e-001 -1.364447e+000 65 70 75
2.475582e-001 -3.333218e-001 -1.390594e+000 107 118 110
1.891167e-001 -3.395507e-001 -1.349208e+000 112 100 74
1.977215e-001 -3.477541e-001 -1.368834e+000 81 97 92
2.486393e-001 -3.449573e-001 -1.367920e+000 71 73 68
1.859102e-001 -3.564569e-001 -1.348405e+000 106 122 117
1.138923e-001 -3.765754e-001 -1.316567e+000 115 124 120
1.123175e-001 -3.817957e-001 -1.304925e+000 70 77 73
1.082992e-001 -3.845555e-001 -1.291669e+000 72 93 82
1.903526e-001 -3.857144e-001 -1.305280e+000 67 96 89
1.962352e-001 -4.059455e-001 -1.269553e+000 101 118 112
1.185712e-001 -4.157501e-001 -1.236729e+000 18 18 22
1.542722e-001 -4.128955e-001 -1.250025e+000 78 108 103
9.960469e-002 -4.232847e-001 -1.222803e+000 51 68 61
1.779786e-001 -4.127775e-001 -1.253986e+000 101 114 101
1.408310e-001 -4.198241e-001 -1.246474e+000 19 22 24
1.535430e-001 -4.186007e-001 -1.246168e+000 108 119 118
1.249137e-001 -4.239249e-001 -1.233517e+000 105 116 113
1.710650e-001 -4.213613e-001 -1.245725e+000 107 122 113
2.706949e-001 4.357720e-001 -1.737391e+000 126 172 107
4.120035e-001 3.740071e-001 -1.814009e+000 199 220 215
5.209273e-002 2.851581e-001 -1.635688e+000 233 241 246
7.988407e-002 2.807947e-001 -1.588657e+000 136 136 130
4.107044e-001 3.242667e-001 -1.821769e+000 94 111 75
5.858167e-001 3.189245e-001 -1.989526e+000 48 47 45
-4.107588e-002 -1.575635e-001 -1.381412e+000 132 168 170
3.166971e-001 -2.654274e-001 -1.468288e+000 232 244 123
3.347045e-001 -2.642363e-001 -1.456073e+000 126 134 95
3.650108e-001 -2.714779e-001 -1.455801e+000 37 38 11
1.360463e-001 -4.038197e-001 -1.264929e+000 25 25 29
2.211481e-001 4.874201e-001 -1.760257e+000 189 207 207
-2.359479e-002 4.080916e-001 -1.568406e+000 136 126 124
-2.346440e-003 3.292514e-001 -1.567197e+000 73 66 59
-1.436640e-001 2.379908e-001 -1.391679e+000 84 73 66
5.101967e-002 2.865602e-001 -1.623030e+000 234 241 245
1.203654e-001 2.831611e-001 -1.602566e+000 134 215 235
6.061094e-001 2.531744e-001 -1.978142e+000 20 16 19
4.778193e-001 2.055357e-001 -1.841270e+000 127 135 103
1.675290e-001 1.390878e-001 -1.641240e+000 17 30 27
1.816239e-001 1.229663e-001 -1.602408e+000 29 30 22
1.811192e-002 6.508991e-002 -1.463355e+000 190 87 119
-3.148950e-002 4.661754e-002 -1.420595e+000 185 86 117
1.029598e-001 5.514166e-002 -1.513063e+000 189 195 188
1.194103e-001 3.840947e-002 -1.448980e+000 126 138 126
-7.250402e-002 -1.054340e-003 -1.377934e+000 19 19 22
1.680191e-001 2.033558e-002 -1.434317e+000 177 114 73
3.394994e-002 3.611382e-003 -1.427941e+000 133 144 136
4.681767e-002 -1.395581e-002 -1.441970e+000 27 38 34
2.693494e-001 3.332051e-004 -1.506879e+000 118 14 8
1.821948e-001 -2.459731e-002 -1.455599e+000 47 42 35
6.839883e-001 -3.490766e-002 -1.991113e+000 61 51 50
2.429105e-001 -1.729915e-001 -1.492173e+000 134 90 90
8.576992e-002 -2.758507e-001 -1.433220e+000 44 60 45
1.253111e-001 -3.921606e-001 -1.288474e+000 19 24 27
-2.088229e-001 3.371497e-001 -1.393892e+000 139 135 131
4.208825e-002 2.854266e-001 -1.619215e+000 229 239 237
2.558256e-002 1.894815e-003 -1.421513e+000 184 194 185
6.194776e-002 -2.035057e-001 -1.420549e+000 44 44 38
4.247622e-002 -2.577944e-001 -1.404735e+000 85 155 101
6.255713e-002 -2.716420e-001 -1.430495e+000 45 60 41
-3.592651e-003 -2.954841e-001 -1.403915e+000 77 153 166
5.224295e-002 -2.957544e-001 -1.407129e+000 82 144 96
9.421364e-002 4.485866e-001 -1.635739e+000 178 189 179
-1.452502e-002 3.554887e-001 -1.558649e+000 87 68 55
6.126647e-003 -5.806701e-002 -1.388270e+000 94 165 120
-6.075671e-002 -9.705486e-002 -1.371513e+000 204 188 153
6.372422e-002 -2.480177e-001 -1.428093e+000 97 170 106
7.613920e-002 -2.697973e-001 -1.421026e+000 39 46 37
9.899411e-002 -2.728829e-001 -1.444791e+000 112 136 119
2.225325e-002 2.871689e-001 -1.633362e+000 231 244 244
1.210999e-001 2.409729e-002 -1.431206e+000 196 181 159
7.295412e-002 -2.108184e-001 -1.432428e+000 40 35 31
-6.863215e-002 6.896977e-002 -1.381749e+000 55 137 161
2.316688e-001 -4.829578e-002 -1.478270e+000 184 183 179
2.366097e-001 -7.489962e-002 -1.474408e+000 34 33 32
2.051834e-001 -8.532971e-002 -1.454628e+000 216 214 213
1.921048e-001 -1.219309e-001 -1.445705e+000 223 204 191
9.881648e-002 -4.245110e-001 -1.343792e+000 64 63 68
3.600911e-001 5.109897e-001 -1.727168e+000 133 147 123
2.025898e-001 -1.345012e-001 -1.454659e+000 207 183 61
2.417638e-001 -8.062149e-002 -1.483777e+000 29 25 22
2.184452e-001 -1.369176e-001 -1.460359e+000 29 25 24
3.839132e-001 4.278745e-001 -1.787868e+000 193 206 199
2.880340e-001 1.480224e-001 -1.770223e+000 45 38 2
3.037193e-001 1.128379e-001 -1.780537e+000 88 120 59
3.228509e-001 1.138305e-001 -1.778126e+000 73 107 23
3.243363e-001 1.120881e-001 -1.787229e+000 125 157 62
-5.931664e-002 6.593836e-002 -1.384340e+000 52 149 178
-1.125064e-001 -2.565302e-003 -1.331213e+000 145 151 177
3.559901e-002 8.886338e-003 -1.422578e+000 119 138 129
3.186240e-002 2.510353e-003 -1.417994e+000 183 194 188
6.900097e-001 -2.352916e-002 -1.986848e+000 89 79 77
1.936551e-001 -2.048731e-002 -1.450312e+000 119 118 116
6.393153e-001 -4.473987e-002 -1.947248e+000 132 138 139
6.419835e-001 -4.389641e-002 -1.950804e+000 118 124 125
-6.075902e-002 -9.535228e-002 -1.372450e+000 207 165 146
1.879170e-001 -4.067338e-002 -1.447199e+000 20 17 16
2.152843e-001 -5.356703e-002 -1.465454e+000 177 180 177
2.233969e-001 -6.868378e-002 -1.469514e+000 14 14 12
2.993537e-001 -7.530150e-002 -1.530241e+000 86 83 85
2.034538e-001 -8.592384e-002 -1.459473e+000 210 210 201
2.409411e-001 -2.868983e-001 -1.423808e+000 184 177 64
-2.188392e-002 3.676891e-001 -1.561245e+000 66 59 51
5.534410e-001 2.137008e-001 -1.930547e+000 102 101 88
3.259816e-001 1.568620e-001 -1.786993e+000 174 194 84
5.301731e-001 1.473958e-001 -1.933883e+000 59 52 38
3.041776e-001 1.092577e-001 -1.772782e+000 90 133 64
2.599715e-001 -4.543215e-002 -1.499824e+000 6 6 10
2.485384e-001 -4.496360e-002 -1.492108e+000 212 219 213
2.849465e-001 -7.477482e-002 -1.521358e+000 13 17 13
2.015105e-001 -1.169357e-001 -1.450038e+000 126 58 51
5.329678e-003 3.945554e-001 -1.618267e+000 156 152 141
-2.644480e-002 2.182904e-001 -1.509790e+000 58 179 209
1.750555e-002 1.945742e-001 -1.489767e+000 210 209 175
-1.405691e-001 9.243798e-002 -1.297196e+000 170 126 111
3.532053e-002 -6.882730e-003 -1.420793e+000 100 117 109
1.935052e-001 -6.215851e-002 -1.445569e+000 27 26 26
-6.358934e-002 -2.323906e-001 -1.359077e+000 189 185 149
2.422199e-001 -1.722122e-001 -1.481120e+000 126 104 100
2.319118e-001 -6.542703e-002 -1.490286e+000 181 182 177
2.142723e-001 -7.584905e-002 -1.464750e+000 202 207 201
2.980644e-001 -8.602477e-002 -1.524906e+000 201 202 199
2.207852e-001 -1.138117e-001 -1.474461e+000 153 151 150
6.382568e-002 -1.675028e-001 -1.430364e+000 106 164 96
-4.604886e-002 -2.293785e-001 -1.384045e+000 167 181 140
3.593789e-003 -6.010888e-002 -1.390932e+000 77 160 114
4.102268e-001 3.308782e-001 -1.797530e+000 135 152 127
-1.663514e-002 1.589321e-001 -1.445890e+000 213 170 163
4.781901e-001 2.279813e-001 -1.814262e+000 166 178 165
1.301634e-002 6.846461e-002 -1.467833e+000 177 87 114
-5.340809e-002 4.640630e-002 -1.395606e+000 56 145 168
-1.218906e-002 5.619150e-002 -1.439391e+000 62 147 167
6.516396e-002 1.066041e-002 -1.450152e+000 75 75 67
1.767939e-001 2.216263e-002 -1.450375e+000 168 103 64
1.615252e-001 1.645395e-002 -1.429389e+000 153 85 40
1.838531e-001 1.593028e-002 -1.456215e+000 156 90 51
1.935427e-001 -2.221586e-002 -1.451335e+000 74 75 72
2.172962e-001 -1.833541e-002 -1.471654e+000 58 60 59
1.925035e-001 -3.777014e-002 -1.447982e+000 150 150 148
1.886334e-001 -4.145957e-002 -1.446107e+000 46 46 41
2.902226e-001 -3.008549e-002 -1.529150e+000 206 208 202
2.147393e-001 -6.727689e-002 -1.465629e+000 25 23 23
2.455501e-001 -6.302920e-002 -1.489859e+000 72 76 75
2.383471e-001 -7.554873e-002 -1.481804e+000 60 56 57
2.589003e-001 -8.218761e-002 -1.497235e+000 193 198 193
3.051386e-001 -8.088520e-002 -1.533032e+000 93 84 81
2.116086e-001 -9.617932e-002 -1.458822e+000 159 164 158
3.012103e-001 -8.760288e-002 -1.535343e+000 71 71 72
2.082204e-001 -1.021341e-001 -1.457105e+000 172 173 170
2.520311e-001 -1.708501e-001 -1.488388e+000 163 120 121
7.397589e-002 -2.616830e-001 -1.426961e+000 51 88 58
2.897734e-001 -2.627374e-001 -1.463089e+000 154 123 37
3.341662e-001 -2.602030e-001 -1.463527e+000 176 188 137
3.631971e-001 -2.753906e-001 -1.470122e+000 19 20 0
3.467273e-001 -3.137308e-001 -1.401856e+000 56 62 59
8.013345e-002 -3.699691e-001 -1.271635e+000 41 52 46
8.847634e-002 -3.768191e-001 -1.273205e+000 140 143 136
5.078968e-001 -3.639747e-001 -1.344897e+000 148 165 155
5.032312e-001 -3.711734e-001 -1.342949e+000 51 75 67
4.701925e-001 -3.842892e-001 -1.307247e+000 94 117 108
4.433976e-001 -3.866099e-001 -1.295835e+000 26 27 20
2.689986e-001 -4.110192e-001 -1.256320e+000 70 100 86
4.407810e-001 -3.891609e-001 -1.289571e+000 100 123 113
4.544068e-001 -3.951637e-001 -1.310830e+000 98 125 118
2.705597e-001 -1.364991e-002 -1.508178e+000 112 18 12
2.892784e-001 -5.909057e-002 -1.525116e+000 42 40 39
2.355855e-001 -9.364357e-002 -1.481781e+000 210 211 207
2.881107e-001 -9.850506e-002 -1.522083e+000 26 23 22
2.712887e-001 -1.791233e-001 -1.500958e+000 200 185 70
4.253838e-001 3.279810e-001 -1.817982e+000 153 173 162
1.144510e-001 9.235602e-002 -1.436740e+000 50 141 165
1.114385e-002 -1.894031e-002 -1.395796e+000 115 127 114
2.668913e-001 -2.741561e-001 -1.493499e+000 70 64 3
2.191104e-001 -5.818604e-002 -1.469014e+000 27 23 24
2.799296e-001 -1.016756e-001 -1.514176e+000 217 217 215
3.419811e-001 1.716629e-001 -1.825116e+000 199 234 94
6.709359e-002 1.524317e-002 -1.435468e+000 143 148 141
-2.488676e-001 3.862085e-001 -1.425112e+000 138 124 127
2.276227e-001 4.801122e-001 -1.750280e+000 160 177 168
2.018031e-001 4.587079e-001 -1.699100e+000 170 177 169
3.838305e-001 4.817204e-001 -1.753162e+000 133 140 126
5.281588e-001 5.451753e-001 -1.985148e+000 103 99 95
1.843903e-001 4.229882e-001 -1.624803e+000 155 159 157
4.004325e-001 4.642742e-001 -1.766240e+000 171 181 163
3.194706e-001 4.298403e-001 -1.742996e+000 105 116 126
3.248787e-001 4.287232e-001 -1.753945e+000 44 56 65
3.305550e-001 4.260289e-001 -1.755307e+000 62 73 79
2.213995e-002 3.437144e-001 -1.609008e+000 93 86 75
3.914997e-001 4.034428e-001 -1.794922e+000 176 200 184
-2.105480e-001 2.246045e-001 -1.372909e+000 127 120 117
4.522313e-001 3.822398e-001 -1.795102e+000 172 179 168
4.295617e-001 3.147185e-001 -1.803427e+000 146 167 150
3.054995e-001 2.692001e-001 -1.685510e+000 163 50 77
4.379619e-001 2.945314e-001 -1.811880e+000 163 182 163
3.375642e-001 2.259859e-001 -1.667051e+000 73 118 50
4.790809e-001 2.446369e-001 -1.888444e+000 136 136 131
3.403403e-001 1.985611e-001 -1.837871e+000 76 112 16
5.107935e-001 2.359952e-001 -1.897647e+000 183 178 170
4.775799e-001 2.090207e-001 -1.825793e+000 134 149 117
1.002889e-001 1.070040e-001 -1.557159e+000 193 88 124
3.316397e-001 1.686329e-001 -1.812980e+000 200 232 100
1.044489e-001 1.003660e-001 -1.561911e+000 171 79 104
3.256303e-001 1.601875e-001 -1.798346e+000 158 177 79
5.780282e-001 2.163254e-001 -1.930574e+000 203 204 196
5.700263e-001 2.065810e-001 -1.918312e+000 191 189 176
5.184394e-001 1.537655e-001 -1.924787e+000 179 170 163
5.282268e-001 1.397245e-001 -1.920539e+000 40 25 16
5.439635e-001 1.403040e-001 -1.934717e+000 164 172 156
2.072191e-001 4.366847e-002 -1.462694e+000 160 131 116
5.395726e-001 1.236558e-001 -1.939703e+000 153 146 135
2.166643e-002 -1.572959e-002 -1.407074e+000 170 178 170
1.842348e-001 1.115173e-002 -1.447730e+000 109 59 29
2.899856e-001 1.081823e-002 -1.525909e+000 102 1 1
2.604353e-001 3.826570e-003 -1.512917e+000 203 27 22
2.807331e-001 8.114661e-003 -1.523868e+000 87 10 5
2.705071e-001 2.071220e-004 -1.512479e+000 167 34 28
2.737949e-001 -4.199285e-003 -1.514928e+000 180 26 22
2.075989e-001 -2.104398e-002 -1.465226e+000 218 220 219
2.608010e-001 -1.165858e-002 -1.787147e+000 56 95 41
2.071889e-001 -2.594619e-002 -1.463238e+000 208 215 208
2.207142e-001 -2.670888e-002 -1.470587e+000 53 53 53
2.885843e-001 -8.408604e-003 -1.527935e+000 102 2 2
2.964445e-001 -1.976156e-002 -1.532429e+000 139 16 8
1.886319e-001 -5.320751e-002 -1.449304e+000 76 75 77
2.910507e-001 -2.981895e-002 -1.527295e+000 196 197 195
1.962251e-001 -5.918884e-002 -1.457456e+000 148 150 146
2.149188e-001 -6.701502e-002 -1.465078e+000 11 15 14
2.501131e-001 -6.424410e-002 -1.484143e+000 67 71 70
2.857316e-001 -5.996125e-002 -1.521395e+000 181 181 180
