ply
format ascii 1.0
element face 0
property list uchar int vertex_indices
element vertex 861
property float x
property float y
property float z
property uchar diffuse_red
property uchar diffuse_green
property uchar diffuse_blue
end_header
8.057080e-002 2.628680e-002 -1.448970e+000 53 67 50
3.649369e-002 -9.603419e-003 -1.430588e+000 126 140 128
2.475188e-001 -8.611639e-003 -1.496267e+000 47 17 18
2.062637e-001 -1.289017e-002 -1.467378e+000 39 33 31
2.458070e-001 -1.709436e-002 -1.493035e+000 73 35 35
1.695895e-002 -6.331761e-002 -1.404093e+000 56 105 76
2.044115e-001 -7.976131e-002 -1.457297e+000 207 208 206
-5.978164e-002 -9.128764e-002 -1.377768e+000 206 180 149
2.357892e-001 -1.140550e-001 -1.476847e+000 29 24 21
1.918280e-001 -1.158206e-001 -1.454352e+000 213 204 196
2.864872e-001 -1.597218e-001 -1.552259e+000 189 146 141
3.509860e-001 -2.289009e-001 -1.564706e+000 196 63 18
8.725302e-002 -2.524310e-001 -1.443590e+000 104 139 98
1.910721e-001 -3.408421e-001 -1.367859e+000 108 102 84
2.321689e-001 3.891838e-001 -1.665161e+000 31 39 43
4.371035e-002 2.990197e-001 -1.623415e+000 208 238 191
3.512370e-001 2.783930e-001 -1.717659e+000 227 111 174
2.909045e-001 2.602830e-001 -1.659441e+000 103 0 0
3.205385e-001 2.633392e-001 -1.673429e+000 216 95 157
-1.622487e-001 1.828824e-001 -1.391289e+000 196 211 172
1.736722e-001 1.276291e-001 -1.607121e+000 22 55 32
2.763481e-001 6.878110e-002 -1.512240e+000 226 192 183
8.294644e-002 2.782523e-002 -1.435498e+000 48 62 48
1.057068e-001 1.182195e-002 -1.421673e+000 47 36 29
5.644619e-002 4.960423e-003 -1.440434e+000 140 159 148
3.492978e-002 -7.615940e-003 -1.421875e+000 136 150 139
2.462997e-001 -1.342291e-002 -1.485055e+000 58 12 12
2.032660e-001 -3.933077e-002 -1.452891e+000 215 219 218
2.446415e-001 -9.465819e-002 -1.487645e+000 34 35 33
5.179397e-001 -1.235050e-001 -1.712244e+000 106 158 78
2.047023e-001 -1.327008e-001 -1.453911e+000 103 81 28
2.323890e-001 -1.725073e-001 -1.469988e+000 124 88 86
-8.186976e-002 -1.611084e-001 -1.356000e+000 127 168 169
2.731519e-001 -1.777753e-001 -1.509858e+000 202 159 65
3.659171e-001 -2.212137e-001 -1.563474e+000 49 20 11
4.646211e-001 -2.549650e-001 -1.505597e+000 236 239 89
4.805095e-001 -2.705073e-001 -1.517874e+000 19 38 4
5.024069e-001 -2.665974e-001 -1.486748e+000 77 164 80
5.406478e-001 -2.788883e-001 -1.514827e+000 103 197 109
4.973154e-001 -2.957340e-001 -1.472715e+000 87 138 123
2.056076e-001 -3.174030e-001 -1.411693e+000 133 156 204
3.173489e-002 3.482186e-001 -1.592686e+000 117 107 100
-1.304801e-002 3.208704e-001 -1.552105e+000 229 237 240
-1.419367e-001 1.948748e-001 -1.414011e+000 73 59 34
-1.207653e-001 1.936478e-001 -1.406322e+000 223 237 235
1.715826e-001 1.382723e-001 -1.615292e+000 28 65 36
2.693102e-001 5.796642e-002 -1.531952e+000 217 221 214
6.844093e-003 -1.193667e-002 -1.396384e+000 154 174 163
2.372308e-001 -5.689922e-002 -1.472007e+000 110 115 111
2.360788e-001 -8.715724e-002 -1.468081e+000 57 54 50
-6.499938e-002 -2.132088e-001 -1.359099e+000 201 175 156
5.533436e-001 -3.102914e-001 -1.449424e+000 100 120 138
-1.157847e-001 1.992630e-001 -1.408628e+000 227 235 237
-1.570783e-001 1.070639e-001 -1.323463e+000 204 212 178
9.321025e-002 2.269875e-002 -1.460077e+000 200 188 155
2.074314e-001 -1.965026e-002 -1.496564e+000 85 83 78
2.686712e-001 -1.810893e-001 -1.499931e+000 217 193 49
6.820950e-002 -2.435001e-001 -1.424632e+000 90 165 106
-1.137557e-001 2.072588e-001 -1.414692e+000 227 234 238
5.726085e-002 -1.763895e-001 -1.431109e+000 100 163 101
3.312742e-001 5.144489e-001 -1.717140e+000 158 175 167
-2.502719e-001 3.839539e-001 -1.436225e+000 130 115 117
-1.983586e-002 4.264250e-001 -1.574862e+000 120 122 118
-1.949951e-002 4.209812e-001 -1.571346e+000 116 111 110
-2.766165e-002 4.146751e-001 -1.567320e+000 139 140 135
-2.165744e-001 3.527602e-001 -1.420667e+000 126 117 118
-2.249560e-001 3.400444e-001 -1.411902e+000 131 117 121
2.701499e-001 4.294962e-001 -1.729883e+000 87 95 82
3.208266e-001 4.349690e-001 -1.752611e+000 200 219 231
-2.089000e-001 3.338349e-001 -1.413095e+000 117 106 107
3.240327e-001 4.326422e-001 -1.737852e+000 62 88 93
2.337616e-001 4.121541e-001 -1.681108e+000 180 196 206
3.160606e-001 4.303358e-001 -1.723238e+000 59 83 88
-2.250938e-001 3.203567e-001 -1.415172e+000 90 72 73
-2.329867e-001 3.042476e-001 -1.413524e+000 92 68 62
3.797367e-001 4.120243e-001 -1.777569e+000 191 214 205
3.795198e-001 4.029733e-001 -1.777740e+000 195 222 214
5.551551e-001 4.287197e-001 -1.919462e+000 53 44 56
-2.110026e-001 2.911094e-001 -1.398398e+000 158 152 152
3.985680e-001 3.804013e-001 -1.792166e+000 189 207 191
2.988515e-002 3.034311e-001 -1.619072e+000 96 95 89
4.056399e-001 3.776650e-001 -1.795378e+000 159 176 158
6.033450e-002 3.029866e-001 -1.634876e+000 150 140 130
4.025784e-001 3.674539e-001 -1.796903e+000 198 216 208
3.873646e-001 3.308757e-001 -1.847648e+000 166 194 172
4.182699e-001 3.498654e-001 -1.799146e+000 121 136 111
-2.346250e-001 2.280206e-001 -1.398869e+000 138 127 131
4.260293e-001 3.500886e-001 -1.798512e+000 182 199 187
4.228789e-001 3.294560e-001 -1.790745e+000 184 200 183
4.880692e-001 3.344675e-001 -1.802132e+000 194 205 200
4.269395e-001 3.092018e-001 -1.801933e+000 182 202 191
5.798784e-001 3.224068e-001 -1.977197e+000 87 86 84
4.709619e-001 3.159353e-001 -1.800999e+000 175 186 180
-2.453743e-001 1.783892e-001 -1.373546e+000 117 98 90
5.889396e-001 3.062722e-001 -1.978889e+000 90 93 86
4.374176e-001 2.918824e-001 -1.803072e+000 164 185 170
5.896002e-001 2.998898e-001 -1.987759e+000 44 46 40
4.536214e-001 2.690852e-001 -1.796513e+000 151 167 143
3.493401e-001 2.594514e-001 -1.683850e+000 252 143 218
4.733023e-001 2.762170e-001 -1.789239e+000 197 217 211
3.824185e-001 2.243588e-001 -1.854441e+000 150 185 88
4.635994e-001 2.580145e-001 -1.792778e+000 116 129 109
4.711344e-001 2.566735e-001 -1.794187e+000 177 194 188
3.720141e-001 2.012440e-001 -1.861567e+000 74 138 59
4.822877e-001 2.183948e-001 -1.812922e+000 120 130 105
5.567699e-001 2.165511e-001 -1.909759e+000 207 210 208
5.543728e-001 2.053965e-001 -1.906567e+000 119 87 71
4.861220e-001 1.940894e-001 -1.832691e+000 159 174 151
3.644676e-001 1.466913e-001 -1.832074e+000 194 230 106
-9.899851e-002 1.105130e-001 -1.355131e+000 181 106 109
3.595879e-001 1.430175e-001 -1.824997e+000 62 108 16
-1.393545e-001 9.764904e-002 -1.302118e+000 181 149 125
5.491419e-001 1.513716e-001 -1.925826e+000 177 185 176
4.635343e-001 1.412985e-001 -1.835615e+000 60 116 51
5.114600e-001 1.328922e-001 -1.922838e+000 86 80 67
5.194268e-001 1.347126e-001 -1.924765e+000 123 108 92
5.296774e-001 1.303978e-001 -1.922568e+000 126 115 105
6.391785e-001 1.439086e-001 -2.013133e+000 141 138 145
6.414619e-001 1.341570e-001 -2.013780e+000 112 106 113
1.777525e-001 9.507492e-002 -1.587556e+000 112 148 126
-6.553551e-002 6.879069e-002 -1.384375e+000 36 129 157
-5.441916e-002 6.640372e-002 -1.389090e+000 44 136 161
1.967791e-001 7.473518e-002 -1.584688e+000 185 185 159
1.330020e-001 5.081795e-002 -1.528862e+000 47 57 43
6.487571e-002 2.984754e-002 -1.451779e+000 140 152 137
2.867997e-001 7.185092e-002 -1.530485e+000 182 168 148
1.639917e-002 1.171437e-002 -1.401309e+000 154 165 153
-2.116559e-002 6.874214e-003 -1.362053e+000 87 104 86
1.238060e-002 5.657330e-003 -1.393109e+000 128 142 133
3.593083e-001 8.599529e-002 -1.514681e+000 138 204 114
4.400845e-001 9.928575e-002 -1.536572e+000 63 127 44
2.913052e-002 -1.284139e-002 -1.419144e+000 84 99 91
4.125923e-001 8.097105e-002 -1.520016e+000 84 157 59
2.640673e-001 2.643416e-003 -1.512840e+000 127 9 1
2.475999e-001 -1.676218e-003 -1.497280e+000 188 181 181
2.099950e-001 -1.339263e-002 -1.463534e+000 69 69 71
2.159653e-001 -1.424052e-002 -1.470203e+000 156 156 152
2.558984e-001 -1.001653e-002 -1.502870e+000 229 44 38
2.734113e-001 -1.254713e-002 -1.516399e+000 153 13 11
2.031268e-001 -1.842586e-002 -1.458702e+000 17 15 16
2.275510e-001 -2.057893e-002 -1.477318e+000 34 33 33
2.470841e-001 -1.978668e-002 -1.495481e+000 77 14 10
2.528192e-001 -1.942810e-002 -1.496634e+000 158 49 47
2.088721e-001 -2.411365e-002 -1.466241e+000 209 212 209
2.293318e-001 -2.600673e-002 -1.480723e+000 22 23 23
2.303415e-001 -2.757289e-002 -1.484965e+000 49 48 50
2.186509e-001 -3.033247e-002 -1.470541e+000 20 20 21
2.366292e-001 -2.876614e-002 -1.486479e+000 94 87 80
6.480782e-001 -5.793860e-002 -1.950174e+000 183 192 189
2.639336e-001 -3.700995e-002 -1.504729e+000 183 184 181
2.338142e-001 -4.549032e-002 -1.474573e+000 173 176 167
6.657142e-001 -7.199434e-002 -1.963978e+000 126 133 137
2.775182e-001 -5.165812e-002 -1.516180e+000 88 87 88
2.049323e-001 -5.728191e-002 -1.459825e+000 43 48 42
2.729501e-001 -5.298270e-002 -1.513097e+000 24 21 23
6.725158e-001 -8.568242e-002 -1.990502e+000 168 169 167
2.559681e-001 -5.858535e-002 -1.497236e+000 95 96 91
2.132431e-001 -6.698044e-002 -1.468731e+000 25 23 24
2.341610e-001 -6.241555e-002 -1.480809e+000 125 125 121
6.811054e-001 -8.279997e-002 -1.965053e+000 98 103 103
2.672108e-001 -6.382223e-002 -1.509167e+000 211 212 209
6.750047e-001 -9.755182e-002 -1.972618e+000 104 90 79
2.422197e-001 -7.218787e-002 -1.488290e+000 219 217 215
2.793684e-001 -7.309350e-002 -1.515648e+000 109 116 109
2.701580e-001 -6.952981e-002 -1.492586e+000 183 190 182
2.576103e-001 -8.034763e-002 -1.500199e+000 199 203 201
3.023929e-001 -7.919792e-002 -1.532737e+000 163 164 164
2.763926e-001 -8.618603e-002 -1.514586e+000 44 41 41
3.010387e-001 -8.571025e-002 -1.530996e+000 93 94 92
2.901431e-001 -9.314599e-002 -1.524322e+000 78 84 80
3.047303e-001 -9.171243e-002 -1.535063e+000 196 199 194
2.862435e-001 -9.807321e-002 -1.517957e+000 180 179 177
2.446997e-001 -1.012046e-001 -1.485455e+000 25 24 20
2.625267e-001 -1.059910e-001 -1.501706e+000 216 218 217
2.737724e-001 -1.030337e-001 -1.510579e+000 202 198 200
2.535496e-001 -1.104761e-001 -1.493129e+000 138 136 136
1.949238e-001 -1.209440e-001 -1.443158e+000 200 182 170
2.049027e-001 -1.160262e-001 -1.446145e+000 177 158 52
4.997050e-001 -1.421321e-001 -1.724028e+000 69 113 50
-6.011201e-002 -2.049950e-001 -1.353889e+000 197 169 149
3.178463e-001 -1.438783e-001 -1.541059e+000 164 130 126
3.031045e-001 -1.468861e-001 -1.526064e+000 123 96 92
3.063636e-001 -1.465553e-001 -1.532376e+000 137 113 110
3.266542e-001 -1.520571e-001 -1.546116e+000 113 12 3
5.391234e-002 -2.095088e-001 -1.415679e+000 77 114 88
2.504586e-001 -1.653342e-001 -1.488276e+000 143 116 107
2.765905e-001 -1.605807e-001 -1.505476e+000 169 129 128
4.492414e-002 -2.169473e-001 -1.406149e+000 23 70 33
5.690687e-002 -2.188066e-001 -1.417168e+000 86 128 98
2.711973e-001 -1.751801e-001 -1.501372e+000 160 120 36
6.552106e-001 -1.353793e-001 -1.621429e+000 52 125 58
3.517345e-001 -2.353189e-001 -1.575184e+000 210 53 40
6.415741e-001 -1.439850e-001 -1.628219e+000 91 172 98
3.596898e-001 -2.331322e-001 -1.569833e+000 213 119 107
6.180316e-001 -1.588760e-001 -1.626277e+000 82 165 92
6.279081e-001 -1.500360e-001 -1.618862e+000 95 193 110
1.064064e-001 -2.859815e-001 -1.450667e+000 63 129 87
-2.454938e-003 -3.051932e-001 -1.378002e+000 112 148 165
3.712799e-002 -2.923814e-001 -1.390249e+000 40 40 37
6.045432e-001 -2.114080e-001 -1.661629e+000 117 130 120
4.568734e-001 -2.152058e-001 -1.535204e+000 93 120 63
2.160605e-001 -2.862997e-001 -1.444195e+000 210 215 115
7.936062e-001 -1.793460e-001 -1.690880e+000 125 155 78
4.581960e-001 -2.443256e-001 -1.526314e+000 143 171 64
1.118214e+000 -6.654672e-001 -2.835766e+000 76 60 72
2.287753e-001 -2.974780e-001 -1.435449e+000 68 59 1
-3.096071e-002 -4.132771e-001 -1.428352e+000 69 67 68
1.577770e-001 -3.133493e-001 -1.372374e+000 185 208 226
-4.100276e-002 -4.372877e-001 -1.434446e+000 72 66 68
1.547721e-001 -3.246636e-001 -1.369290e+000 75 107 161
2.031364e-001 -3.087552e-001 -1.381336e+000 94 127 167
4.791818e-001 -2.615412e-001 -1.510322e+000 66 158 66
2.485002e-001 -3.155353e-001 -1.413986e+000 93 118 108
1.756393e-001 -3.218199e-001 -1.368053e+000 94 126 169
2.691879e-001 -3.121733e-001 -1.421588e+000 103 137 123
2.264303e-001 -3.236480e-001 -1.402604e+000 103 115 108
2.060410e-001 -3.160614e-001 -1.369083e+000 130 160 201
4.618522e-001 -2.839318e-001 -1.511340e+000 31 25 11
1.951884e-001 -3.268025e-001 -1.367936e+000 49 57 84
2.065182e-001 -3.245236e-001 -1.367772e+000 57 60 76
2.132555e-001 -3.218299e-001 -1.367840e+000 47 47 55
2.480665e-001 -3.241719e-001 -1.397481e+000 41 53 53
5.003701e-001 -2.756922e-001 -1.502328e+000 102 205 119
2.895264e-001 -3.156310e-001 -1.401090e+000 66 69 69
1.413220e-001 -3.517502e-001 -1.346667e+000 106 114 109
1.123684e-001 -3.642985e-001 -1.328555e+000 47 42 45
3.044233e-001 -3.235444e-001 -1.403100e+000 106 124 121
5.163854e-001 -2.665325e-001 -1.467618e+000 107 194 126
1.242270e-001 -3.645026e-001 -1.323913e+000 115 130 127
2.160240e-001 -3.444906e-001 -1.357904e+000 97 112 103
2.520597e-001 -3.327733e-001 -1.372066e+000 63 71 82
4.000502e-001 -3.050215e-001 -1.431032e+000 42 52 51
2.626352e-001 -3.363918e-001 -1.370897e+000 66 77 74
1.355696e-001 -3.638624e-001 -1.315807e+000 56 72 64
1.574412e-001 -3.646383e-001 -1.326494e+000 101 120 110
-2.464378e-001 4.079010e-001 -1.448783e+000 77 62 65
3.543506e-001 5.002340e-001 -1.752636e+000 134 145 128
-2.941397e-002 3.647976e-001 -1.550680e+000 113 110 107
-2.087364e-001 3.304117e-001 -1.408996e+000 161 157 156
3.644045e-001 4.280577e-001 -1.780282e+000 157 171 158
-1.423847e-002 3.327133e-001 -1.556719e+000 47 38 34
-1.469024e-003 3.245512e-001 -1.551013e+000 213 209 208
4.432531e-001 3.803776e-001 -1.797953e+000 191 200 189
4.197943e-001 3.313022e-001 -1.803650e+000 194 212 195
3.739317e-001 2.398856e-001 -1.841906e+000 79 131 59
4.948969e-001 2.226256e-001 -1.849342e+000 122 122 116
1.906720e-002 5.871001e-002 -1.455791e+000 142 124 146
3.929028e-003 1.847936e-003 -1.395241e+000 192 202 195
5.749273e-001 2.516021e-002 -1.829722e+000 27 35 10
2.111778e-001 -1.427326e-002 -1.460524e+000 24 25 27
2.381495e-001 -1.723878e-002 -1.486979e+000 215 214 213
2.243479e-001 -3.427521e-002 -1.475679e+000 208 214 208
2.307132e-001 -5.099035e-002 -1.478992e+000 200 203 194
1.909576e-001 -5.816607e-002 -1.448904e+000 19 19 19
2.103909e-001 -5.784195e-002 -1.466687e+000 216 222 216
2.794151e-001 -5.989217e-002 -1.519935e+000 218 223 222
2.390145e-001 -6.656870e-002 -1.480133e+000 192 195 187
2.581388e-001 -6.489057e-002 -1.500386e+000 22 26 25
2.909957e-001 -6.974971e-002 -1.526910e+000 217 219 216
3.002116e-001 -9.363637e-002 -1.528835e+000 218 215 212
1.923984e-001 -1.201766e-001 -1.464499e+000 203 198 194
3.503030e-001 -2.271281e-001 -1.565663e+000 230 45 28
3.453401e-001 -2.385614e-001 -1.567526e+000 221 193 70
3.454546e-001 -2.504341e-001 -1.568853e+000 74 52 5
3.090300e-001 -2.691647e-001 -1.481430e+000 242 245 96
2.259896e-001 -2.996143e-001 -1.433984e+000 32 26 7
2.506469e-001 -3.184404e-001 -1.410551e+000 108 128 123
3.666327e-001 4.873056e-001 -1.741344e+000 157 172 163
1.138149e-001 4.138861e-001 -1.617702e+000 74 62 58
-2.800166e-002 3.745295e-001 -1.553163e+000 145 146 143
-1.887374e-001 3.130903e-001 -1.384638e+000 89 74 71
2.752670e-002 3.519130e-001 -1.598700e+000 128 124 113
4.210313e-001 3.439872e-001 -1.794917e+000 119 131 104
-1.626723e-001 2.369863e-001 -1.415679e+000 72 59 54
6.508308e-002 1.981915e-001 -1.539922e+000 205 221 181
4.601845e-001 2.710360e-001 -1.793546e+000 129 148 134
4.975568e-001 2.521546e-001 -1.879876e+000 103 107 99
5.066488e-001 2.348962e-001 -1.918105e+000 71 65 57
4.976425e-001 2.178514e-001 -1.860280e+000 116 117 108
5.504761e-001 2.078968e-001 -1.921245e+000 80 67 51
4.854080e-001 1.945171e-001 -1.827658e+000 143 151 130
5.129555e-001 1.631017e-001 -1.916176e+000 99 97 86
5.303826e-001 1.303652e-001 -1.950340e+000 48 47 31
4.732479e-001 1.398284e-001 -1.827979e+000 68 128 54
-6.534777e-002 6.714613e-002 -1.384012e+000 11 97 123
-4.911778e-002 1.797692e-002 -1.368354e+000 203 202 191
-5.573678e-002 8.758574e-003 -1.362345e+000 38 64 79
2.819247e-001 6.840269e-002 -1.537198e+000 210 186 172
1.702757e-002 7.816488e-003 -1.403260e+000 97 109 95
7.147650e-002 4.928358e-003 -1.423260e+000 20 21 17
1.722414e-001 -4.806241e-003 -1.430870e+000 210 206 202
1.932913e-001 -5.786527e-002 -1.452731e+000 14 15 18
2.755402e-001 -4.722962e-002 -1.510942e+000 33 28 29
2.045303e-001 -7.249440e-002 -1.462097e+000 206 209 203
-7.727678e-002 -1.570386e-001 -1.346153e+000 119 180 184
2.005287e-001 -1.216873e-001 -1.492337e+000 173 175 173
2.472093e-001 -1.114208e-001 -1.487465e+000 211 209 206
5.572513e-001 -1.169804e-001 -1.744059e+000 88 78 67
2.025410e-001 -1.393227e-001 -1.454690e+000 215 195 72
3.223020e-001 -1.533539e-001 -1.549549e+000 56 8 1
2.861624e-001 -1.553493e-001 -1.493905e+000 35 14 13
2.203043e-001 -1.843677e-001 -1.467858e+000 33 24 5
3.777802e-002 -2.289897e-001 -1.400684e+000 105 162 124
5.098544e-002 -2.256763e-001 -1.407264e+000 50 96 64
-4.110450e-002 -3.206282e-001 -1.383399e+000 168 60 83
6.013431e-001 -2.181893e-001 -1.645518e+000 23 22 20
2.059855e-001 -2.972273e-001 -1.416137e+000 121 120 116
1.091207e-001 5.015291e-001 -1.682544e+000 144 144 137
4.024573e-001 4.283988e-001 -1.783461e+000 123 123 103
4.827092e-001 3.732554e-001 -1.827121e+000 173 177 173
4.301152e-001 3.143453e-001 -1.818238e+000 160 181 176
4.557769e-001 3.258218e-001 -1.802737e+000 110 116 100
2.814155e-001 2.616524e-001 -1.672534e+000 87 1 0
2.631424e-001 2.520088e-001 -1.664249e+000 109 143 77
4.736747e-001 1.815951e-001 -1.789807e+000 123 178 94
2.002465e-001 2.036615e-002 -1.468918e+000 128 79 50
1.957432e-001 -1.011800e-001 -1.467469e+000 29 28 26
2.746150e-001 -8.616862e-002 -1.480795e+000 71 73 69
5.462186e-001 -1.346319e-001 -1.704026e+000 102 174 86
4.506251e-002 4.452302e-001 -1.610511e+000 145 140 134
3.184851e-002 3.442470e-001 -1.611889e+000 125 114 102
3.854393e-001 4.139503e-001 -1.778517e+000 189 207 198
-1.284503e-002 3.313375e-001 -1.570692e+000 70 57 47
2.418445e-003 2.944357e-001 -1.579696e+000 177 175 162
-1.295013e-001 2.580802e-001 -1.391166e+000 214 216 220
-1.558262e-001 2.285572e-001 -1.404682e+000 66 47 35
1.294289e-001 2.243203e-001 -1.617652e+000 194 231 187
2.738262e-001 2.558452e-001 -1.640479e+000 121 164 88
5.044368e-001 2.438807e-001 -1.893736e+000 90 92 85
1.654105e-001 1.142194e-001 -1.589445e+000 230 242 239
-1.256064e-001 -7.905170e-003 -1.331463e+000 182 113 138
-5.925424e-002 -1.062460e-001 -1.339446e+000 169 188 149
4.197389e-002 -9.840080e-002 -1.423390e+000 87 173 114
5.016147e-001 -1.191443e-001 -1.734267e+000 99 161 77
2.250848e-001 -1.690949e-001 -1.482454e+000 18 19 15
5.357483e-001 2.224710e-001 -1.865349e+000 173 166 156
1.585811e-001 1.695388e-001 -1.647669e+000 20 20 20
1.999996e-001 1.579993e-001 -1.674452e+000 114 189 94
4.580426e-001 1.862551e-001 -1.856947e+000 21 32 15
3.976590e-001 1.563798e-001 -1.764912e+000 118 180 94
4.586281e-001 1.437962e-001 -1.865862e+000 95 155 82
2.477538e-001 4.582192e-002 -1.532137e+000 219 220 213
-1.728401e-002 4.191954e-001 -1.566919e+000 118 119 111
9.186203e-002 4.358610e-001 -1.642579e+000 196 208 203
-3.067449e-002 3.751525e-001 -1.553622e+000 132 132 127
1.611714e-001 3.892757e-001 -1.623324e+000 130 126 120
2.453913e-001 4.030591e-001 -1.676591e+000 201 232 232
-1.643760e-001 3.080068e-001 -1.371984e+000 173 169 168
-2.027602e-001 3.014299e-001 -1.396974e+000 156 146 150
-1.950533e-002 3.336414e-001 -1.565859e+000 65 53 44
-1.380742e-001 2.624512e-001 -1.392299e+000 229 227 230
4.054190e-001 3.382276e-001 -1.775652e+000 158 178 157
4.310934e-001 3.027395e-001 -1.805275e+000 147 167 154
3.103253e-001 2.631426e-001 -1.677304e+000 230 103 155
3.791461e-001 2.138895e-001 -1.847961e+000 59 109 21
5.779455e-001 2.266868e-001 -1.937736e+000 144 141 136
5.567975e-001 2.179011e-001 -1.904707e+000 205 211 204
6.121980e-001 2.258602e-001 -2.001029e+000 77 71 73
4.876539e-001 1.748347e-001 -1.842532e+000 52 71 27
1.084535e-001 1.066905e-001 -1.559259e+000 209 100 135
8.170136e-002 9.328339e-002 -1.532974e+000 56 144 167
1.642339e-001 9.137855e-002 -1.373877e+000 179 87 114
3.492170e-002 7.319285e-002 -1.486507e+000 59 137 160
3.696883e-001 8.216239e-002 -1.105901e+000 104 150 79
-1.361529e-003 5.679711e-002 -1.443762e+000 81 168 193
6.092248e-002 6.816968e-002 -1.451726e+000 113 148 175
1.905742e-001 8.362196e-002 -1.580613e+000 80 91 89
-1.404225e-001 4.408282e-002 -1.592967e+000 62 139 164
-2.572647e-002 4.747190e-002 -1.422169e+000 187 81 118
-2.993391e-002 4.303187e-002 -1.416612e+000 172 77 105
-4.495275e-002 3.380798e-002 -1.399112e+000 61 144 172
2.640757e-001 7.045573e-002 -1.542982e+000 38 34 16
1.467992e-001 5.434714e-002 -1.530475e+000 84 92 82
1.142168e-001 3.446480e-002 -1.434621e+000 63 75 65
1.993024e-001 2.952735e-002 -1.460914e+000 167 100 57
-1.398147e-003 3.679432e-004 -1.390065e+000 168 176 168
1.636771e-001 1.851306e-002 -1.441409e+000 130 69 32
2.178559e-002 -2.145360e-003 -1.412005e+000 82 92 85
1.892357e-001 1.581947e-002 -1.452538e+000 136 69 36
1.746435e-001 1.173675e-002 -1.443956e+000 170 98 58
1.715285e-001 9.802388e-003 -1.437662e+000 159 92 55
1.638184e-001 7.587400e-003 -1.431296e+000 144 78 39
1.956221e-001 -2.981264e-002 -1.452212e+000 47 45 48
2.151635e-001 -3.258832e-002 -1.469654e+000 29 29 27
2.349124e-001 -3.145680e-002 -1.484795e+000 212 195 193
2.460583e-001 -4.215430e-002 -1.493548e+000 211 214 207
2.319010e-001 -4.771712e-002 -1.473216e+000 205 207 203
2.566867e-001 -6.073194e-002 -1.498685e+000 116 114 115
2.098609e-001 -8.063699e-002 -1.463607e+000 43 39 36
2.181448e-001 -8.066826e-002 -1.466456e+000 217 219 219
2.862689e-001 -7.102310e-002 -1.505891e+000 22 22 18
2.232415e-001 -9.036669e-002 -1.468454e+000 168 170 164
2.205293e-001 -1.069853e-001 -1.471342e+000 219 221 216
2.262247e-001 -1.065025e-001 -1.477991e+000 217 217 215
2.689985e-001 -1.587072e-001 -1.500740e+000 145 115 116
2.718825e-001 -1.631438e-001 -1.503199e+000 159 117 122
2.415320e-001 -1.732601e-001 -1.479311e+000 133 93 92
4.976748e-002 -1.983450e-001 -1.412509e+000 55 89 46
9.671240e-002 -2.497041e-001 -1.451872e+000 58 60 41
3.461572e-001 -2.553602e-001 -1.481650e+000 165 177 123
3.199879e-001 -2.593316e-001 -1.470835e+000 213 228 136
3.355614e-001 -2.585057e-001 -1.469794e+000 97 109 60
3.871192e-001 -2.533731e-001 -1.482028e+000 65 83 0
3.230824e-001 -2.679324e-001 -1.459608e+000 85 93 17
2.195743e-001 -2.818868e-001 -1.440678e+000 217 217 128
3.788033e-001 -2.607123e-001 -1.475149e+000 60 77 15
7.182953e-002 -3.032118e-001 -1.423171e+000 80 148 102
1.872338e-001 -2.897699e-001 -1.440241e+000 90 58 34
2.122462e-001 -2.876446e-001 -1.442068e+000 17 20 0
3.317452e-001 -2.707930e-001 -1.464048e+000 42 53 8
3.713374e-001 -2.724460e-001 -1.483615e+000 77 74 7
3.231192e-001 -2.793536e-001 -1.454301e+000 80 77 13
2.153096e-001 -3.019940e-001 -1.415878e+000 28 25 18
3.202455e-001 -3.021931e-001 -1.410504e+000 75 96 92
1.821663e-001 -3.216663e-001 -1.374468e+000 149 182 218
1.540394e-001 -3.330088e-001 -1.370067e+000 72 69 69
1.900651e-001 -3.266111e-001 -1.366750e+000 65 70 75
2.467929e-001 -3.293158e-001 -1.392420e+000 107 118 110
1.886308e-001 -3.356859e-001 -1.351845e+000 112 100 74
1.973930e-001 -3.437583e-001 -1.371038e+000 81 97 92
2.476395e-001 -3.408744e-001 -1.370256e+000 71 73 68
1.855213e-001 -3.524345e-001 -1.351037e+000 106 122 117
1.141294e-001 -3.725553e-001 -1.319782e+000 115 124 120
1.124461e-001 -3.777466e-001 -1.308390e+000 70 77 73
1.082984e-001 -3.805247e-001 -1.295455e+000 72 93 82
1.894437e-001 -3.815143e-001 -1.308935e+000 67 96 89
1.948683e-001 -4.016407e-001 -1.274015e+000 101 118 112
1.177352e-001 -4.115860e-001 -1.241863e+000 18 18 22
1.531644e-001 -4.086652e-001 -1.254898e+000 78 108 103
9.883700e-002 -4.191197e-001 -1.228238e+000 51 68 61
1.766444e-001 -4.084918e-001 -1.258783e+000 101 114 101
1.398497e-001 -4.155727e-001 -1.251438e+000 19 22 24
1.524131e-001 -4.143302e-001 -1.251125e+000 108 119 118
1.239666e-001 -4.196971e-001 -1.238756e+000 105 116 113
1.697365e-001 -4.170323e-001 -1.250695e+000 107 122 113
2.696610e-001 4.301338e-001 -1.733274e+000 126 172 107
4.098658e-001 3.695449e-001 -1.807558e+000 199 220 215
5.407758e-002 2.808580e-001 -1.633479e+000 233 241 246
8.086491e-002 2.769637e-001 -1.587686e+000 136 136 130
4.088234e-001 3.204998e-001 -1.815295e+000 94 111 75
5.826083e-001 3.150239e-001 -1.976708e+000 48 47 45
-3.841377e-002 -1.561608e-001 -1.383037e+000 132 168 170
3.155631e-001 -2.618741e-001 -1.468797e+000 232 244 123
3.329165e-001 -2.609322e-001 -1.457810e+000 126 134 95
3.631972e-001 -2.677123e-001 -1.456665e+000 37 38 11
1.353552e-001 -3.996474e-001 -1.269412e+000 25 25 29
2.208926e-001 4.805391e-001 -1.755563e+000 189 207 207
-2.214127e-002 4.021280e-001 -1.568943e+000 136 126 124
-4.459964e-004 3.243827e-001 -1.566665e+000 73 66 59
-1.412522e-001 2.342641e-001 -1.394737e+000 84 73 66
5.286546e-002 2.822993e-001 -1.621141e+000 234 241 245
1.208308e-001 2.794800e-001 -1.601407e+000 134 215 235
6.027978e-001 2.505112e-001 -1.965791e+000 20 16 19
4.756534e-001 2.036605e-001 -1.834123e+000 127 135 103
1.683181e-001 1.372719e-001 -1.638869e+000 17 30 27
1.818715e-001 1.215599e-001 -1.600918e+000 29 30 22
2.025872e-002 6.406807e-002 -1.463101e+000 190 87 119
-2.605964e-002 4.569850e-002 -1.416568e+000 185 86 117
1.037999e-001 5.441890e-002 -1.513021e+000 189 195 188
1.330692e-001 3.944023e-002 -1.427813e+000 126 138 126
-7.020111e-002 -1.567993e-003 -1.380221e+000 19 19 22
1.671799e-001 2.051156e-002 -1.436050e+000 177 114 73
3.956478e-002 3.729096e-003 -1.422163e+000 133 144 136
4.782019e-002 -1.396426e-002 -1.443505e+000 27 38 34
2.668822e-001 1.656075e-003 -1.509260e+000 118 14 8
1.815952e-001 -2.395748e-002 -1.456782e+000 47 42 35
6.807953e-001 -3.288197e-002 -1.978143e+000 61 51 50
2.423331e-001 -1.707911e-001 -1.492836e+000 134 90 90
8.764853e-002 -2.727442e-001 -1.433579e+000 44 60 45
1.250972e-001 -3.880157e-001 -1.292305e+000 19 24 27
-2.057567e-001 3.317593e-001 -1.397416e+000 139 135 131
4.405769e-002 2.811438e-001 -1.617366e+000 229 239 237
2.686134e-002 1.626524e-003 -1.422970e+000 184 194 185
6.401479e-002 -2.010733e-001 -1.420661e+000 44 44 38
4.455744e-002 -2.550236e-001 -1.405741e+000 85 155 101
6.470443e-002 -2.686623e-001 -1.430939e+000 45 60 41
-5.373175e-004 -2.923478e-001 -1.404631e+000 77 153 166
5.349558e-002 -2.932091e-001 -1.409203e+000 82 144 96
9.478857e-002 4.423254e-001 -1.634126e+000 178 189 179
-1.264804e-002 3.502417e-001 -1.558411e+000 87 68 55
7.407132e-003 -5.803965e-002 -1.390838e+000 94 165 120
-5.839896e-002 -9.653644e-002 -1.373684e+000 204 188 153
7.326972e-002 -2.426541e-001 -1.417723e+000 97 170 106
7.825271e-002 -2.665333e-001 -1.421043e+000 39 46 37
1.009737e-001 -2.695412e-001 -1.444451e+000 112 136 119
2.553824e-002 2.824647e-001 -1.629456e+000 231 244 244
1.208764e-001 2.402960e-002 -1.432896e+000 196 181 159
7.469042e-002 -2.085007e-001 -1.433002e+000 40 35 31
-6.854816e-002 6.765686e-002 -1.385144e+000 55 137 161
2.312711e-001 -4.719179e-002 -1.478908e+000 184 183 179
2.362498e-001 -7.361278e-002 -1.475795e+000 34 33 32
2.046900e-001 -8.391085e-002 -1.455451e+000 216 214 213
1.917095e-001 -1.202563e-001 -1.446714e+000 223 204 191
9.825837e-002 -4.138545e-001 -1.333529e+000 64 63 68
3.583988e-001 5.025436e-001 -1.721412e+000 133 147 123
2.023226e-001 -1.326913e-001 -1.455472e+000 207 183 61
2.415479e-001 -7.912674e-002 -1.484156e+000 29 25 22
2.182335e-001 -1.349189e-001 -1.461030e+000 29 25 24
3.813444e-001 4.226507e-001 -1.782820e+000 193 206 199
2.876410e-001 1.462752e-001 -1.765282e+000 45 38 2
3.034210e-001 1.116533e-001 -1.775664e+000 88 120 59
3.222236e-001 1.127845e-001 -1.772789e+000 73 107 23
3.250569e-001 1.115505e-001 -1.778362e+000 125 157 62
-5.582514e-002 6.543641e-002 -1.384897e+000 52 149 178
-1.052413e-001 -1.539548e-003 -1.328441e+000 145 151 177
3.775394e-002 9.165848e-003 -1.422841e+000 119 138 129
3.301154e-002 2.303179e-003 -1.419857e+000 183 194 188
6.861676e-001 -2.112957e-002 -1.975725e+000 89 79 77
1.932666e-001 -1.987997e-002 -1.451348e+000 119 118 116
6.360445e-001 -4.233722e-002 -1.937519e+000 132 138 139
6.386742e-001 -4.149023e-002 -1.940973e+000 118 124 125
-4.820504e-002 -9.112835e-002 -1.364415e+000 207 165 146
1.876585e-001 -3.984402e-002 -1.448185e+000 20 17 16
2.148997e-001 -5.246720e-002 -1.466033e+000 177 180 177
2.227735e-001 -6.758109e-002 -1.470338e+000 14 14 12
2.980585e-001 -7.377061e-002 -1.531131e+000 86 83 85
2.033208e-001 -8.449797e-002 -1.460570e+000 210 210 201
2.362407e-001 -2.841043e-001 -1.428929e+000 184 177 64
-1.900054e-002 3.624694e-001 -1.559523e+000 66 59 51
5.505540e-001 2.119266e-001 -1.922345e+000 102 101 88
3.252097e-001 1.551998e-001 -1.781599e+000 174 194 84
5.275201e-001 1.463852e-001 -1.925041e+000 59 52 38
3.038432e-001 1.082504e-001 -1.767355e+000 90 133 64
2.589537e-001 -4.436075e-002 -1.501965e+000 6 6 10
2.479463e-001 -4.383841e-002 -1.492171e+000 212 219 213
2.836887e-001 -7.364582e-002 -1.521765e+000 13 17 13
1.979127e-001 -1.162922e-001 -1.456709e+000 126 58 51
8.054186e-003 3.888021e-001 -1.615432e+000 156 152 141
-1.486019e-002 2.188315e-001 -1.496097e+000 58 179 209
2.345399e-002 1.927050e-001 -1.484039e+000 210 209 175
-1.383506e-001 9.063480e-002 -1.302132e+000 170 126 111
3.661689e-002 -7.009503e-003 -1.422716e+000 100 117 109
1.932648e-001 -6.085296e-002 -1.446910e+000 27 26 26
-6.137549e-002 -2.307909e-001 -1.362187e+000 189 185 149
2.416377e-001 -1.700854e-001 -1.481752e+000 126 104 100
2.312604e-001 -6.436659e-002 -1.490801e+000 181 182 177
2.137966e-001 -7.465682e-002 -1.465547e+000 202 207 201
2.966590e-001 -8.478936e-002 -1.525352e+000 201 202 199
2.203595e-001 -1.122157e-001 -1.475028e+000 153 151 150
6.867956e-002 -1.659835e-001 -1.429006e+000 106 164 96
-4.389515e-002 -2.277615e-001 -1.386836e+000 167 181 140
3.815795e-003 -5.933691e-002 -1.394240e+000 77 160 114
4.079312e-001 3.271583e-001 -1.792313e+000 135 152 127
-1.522002e-002 1.564840e-001 -1.447536e+000 213 170 163
4.758524e-001 2.261902e-001 -1.808713e+000 166 178 165
1.518035e-002 6.733496e-002 -1.467331e+000 177 87 114
-5.071567e-002 4.543002e-002 -1.396096e+000 56 145 168
-7.412694e-003 5.442523e-002 -1.435870e+000 62 147 167
6.639523e-002 1.050474e-002 -1.450313e+000 75 75 67
1.760368e-001 2.227480e-002 -1.451709e+000 168 103 64
1.608168e-001 1.660195e-002 -1.430983e+000 153 85 40
1.832991e-001 1.626193e-002 -1.457138e+000 156 90 51
1.929263e-001 -2.141326e-002 -1.452198e+000 74 75 72
2.165449e-001 -1.747657e-002 -1.472270e+000 58 60 59
1.918841e-001 -3.682395e-002 -1.448933e+000 150 150 148
1.880578e-001 -4.050216e-002 -1.447078e+000 46 46 41
2.887917e-001 -2.912560e-002 -1.529762e+000 206 208 202
2.140795e-001 -6.596765e-002 -1.466385e+000 25 23 23
2.445421e-001 -6.182839e-002 -1.490707e+000 72 76 75
2.375541e-001 -7.411250e-002 -1.482478e+000 60 56 57
2.579861e-001 -8.067076e-002 -1.497805e+000 193 198 193
3.032143e-001 -7.936441e-002 -1.534702e+000 93 84 81
2.109877e-001 -9.462827e-002 -1.459696e+000 159 164 158
3.006465e-001 -8.593237e-002 -1.534120e+000 71 71 72
2.076083e-001 -1.005782e-001 -1.458068e+000 172 173 170
2.512617e-001 -1.685676e-001 -1.489230e+000 163 120 121
7.516115e-002 -2.591767e-001 -1.428208e+000 51 88 58
2.887688e-001 -2.593630e-001 -1.464211e+000 154 123 37
3.326008e-001 -2.568546e-001 -1.465088e+000 176 188 137
3.613921e-001 -2.718706e-001 -1.471808e+000 19 20 0
3.447201e-001 -3.100562e-001 -1.404587e+000 56 62 59
8.073786e-002 -3.658117e-001 -1.274431e+000 41 52 46
9.069162e-002 -3.720239e-001 -1.273046e+000 140 143 136
5.041793e-001 -3.603458e-001 -1.350122e+000 148 165 155
4.995605e-001 -3.674835e-001 -1.348129e+000 51 75 67
4.665696e-001 -3.806057e-001 -1.312616e+000 94 117 108
4.399320e-001 -3.828836e-001 -1.301070e+000 26 27 20
2.670005e-001 -4.068440e-001 -1.260635e+000 70 100 86
4.373028e-001 -3.854356e-001 -1.294863e+000 100 123 113
4.509602e-001 -3.913386e-001 -1.315975e+000 98 125 118
2.679131e-001 -1.166552e-002 -1.511071e+000 112 18 12
2.873729e-001 -5.706804e-002 -1.526781e+000 42 40 39
2.348309e-001 -9.204426e-002 -1.482488e+000 210 211 207
2.877051e-001 -9.747795e-002 -1.522087e+000 26 23 22
2.704417e-001 -1.767504e-001 -1.501669e+000 200 185 70
4.231585e-001 3.242016e-001 -1.811934e+000 153 173 162
1.142319e-001 9.147236e-002 -1.438049e+000 50 141 165
1.218326e-002 -1.893688e-002 -1.398248e+000 115 127 114
2.665478e-001 -2.705346e-001 -1.493627e+000 70 64 3
2.184051e-001 -5.694396e-002 -1.469713e+000 27 23 24
2.795193e-001 -9.878799e-002 -1.511960e+000 217 217 215
3.417878e-001 1.696961e-001 -1.818083e+000 199 234 94
6.768858e-002 1.507355e-002 -1.437209e+000 143 148 141
-2.398240e-001 3.789238e-001 -1.423401e+000 138 124 127
2.290965e-001 4.719116e-001 -1.743675e+000 160 177 168
2.042940e-001 4.511908e-001 -1.692302e+000 170 177 169
3.810372e-001 4.756379e-001 -1.748366e+000 133 140 126
5.240425e-001 5.368286e-001 -1.975043e+000 103 99 95
1.834411e-001 4.176726e-001 -1.623728e+000 155 159 157
3.969715e-001 4.587221e-001 -1.762083e+000 171 181 163
3.171304e-001 4.245576e-001 -1.740211e+000 105 116 126
3.225931e-001 4.233988e-001 -1.750824e+000 44 56 65
3.281749e-001 4.207796e-001 -1.752232e+000 62 73 79
2.568244e-002 3.383178e-001 -1.605324e+000 93 86 75
3.884826e-001 3.986526e-001 -1.791325e+000 176 200 184
-2.027009e-001 2.206612e-001 -1.372160e+000 127 120 117
4.395440e-001 3.793830e-001 -1.804509e+000 172 179 168
4.270869e-001 3.113485e-001 -1.798040e+000 146 167 150
3.035844e-001 2.663881e-001 -1.683763e+000 163 50 77
4.355373e-001 2.914794e-001 -1.806331e+000 163 182 163
3.349372e-001 2.239697e-001 -1.666332e+000 73 118 50
4.768043e-001 2.421159e-001 -1.881150e+000 136 136 131
3.406205e-001 1.961640e-001 -1.829994e+000 76 112 16
5.078586e-001 2.336488e-001 -1.890595e+000 183 178 170
4.753958e-001 2.073538e-001 -1.819784e+000 134 149 117
1.022640e-001 1.056784e-001 -1.555067e+000 193 88 124
3.316073e-001 1.666336e-001 -1.805335e+000 200 232 100
1.086973e-001 9.968927e-002 -1.556892e+000 171 79 104
3.258246e-001 1.584366e-001 -1.791754e+000 158 177 79
5.749431e-001 2.145910e-001 -1.922119e+000 203 204 196
5.672445e-001 2.049642e-001 -1.910019e+000 191 189 176
5.163219e-001 1.526045e-001 -1.915786e+000 179 170 163
5.259101e-001 1.388296e-001 -1.911895e+000 40 25 16
5.418540e-001 1.394061e-001 -1.926221e+000 164 172 156
2.066536e-001 4.296963e-002 -1.463826e+000 160 131 116
5.373830e-001 1.230188e-001 -1.930115e+000 153 146 135
2.264211e-002 -1.579304e-002 -1.409277e+000 170 178 170
1.838491e-001 1.159236e-002 -1.448504e+000 109 59 29
2.890562e-001 1.163744e-002 -1.525431e+000 102 1 1
2.597259e-001 4.575306e-003 -1.512697e+000 203 27 22
2.812784e-001 8.953105e-003 -1.522966e+000 87 10 5
2.697095e-001 1.052046e-003 -1.512230e+000 167 34 28
2.729826e-001 -3.300033e-003 -1.514660e+000 180 26 22
2.070361e-001 -2.023445e-002 -1.465848e+000 218 220 219
2.622964e-001 -1.163460e-002 -1.782154e+000 56 95 41
2.066297e-001 -2.509236e-002 -1.463882e+000 208 215 208
2.201830e-001 -2.577928e-002 -1.471012e+000 53 53 53
2.876449e-001 -7.432902e-003 -1.527782e+000 102 2 2
2.955410e-001 -1.863836e-002 -1.531950e+000 139 16 8
1.883081e-001 -5.216637e-002 -1.450118e+000 76 75 77
2.901835e-001 -2.862113e-002 -1.526916e+000 196 197 195
1.957452e-001 -5.808182e-002 -1.458297e+000 148 150 146
2.143017e-001 -6.581434e-002 -1.465877e+000 11 15 14
2.493997e-001 -6.285959e-002 -1.484446e+000 67 71 70
2.848639e-001 -5.854296e-002 -1.521292e+000 181 181 180
2.551968e-001 -6.852821e-002 -1.495682e+000 209 209 209
2.426173e-001 -7.250713e-002 -1.489276e+000 216 219 216
2.889658e-001 -6.860225e-002 -1.523280e+000 144 149 148
2.472698e-001 -8.416310e-002 -1.489336e+000 209 209 206
2.880253e-001 -7.482344e-002 -1.521316e+000 81 87 84
2.263162e-001 -9.273251e-002 -1.471238e+000 176 181 175
2.955793e-001 -9.578308e-002 -1.526834e+000 216 220 221
2.300510e-001 -1.156447e-001 -1.476146e+000 141 140 141
2.417994e-001 -1.135484e-001 -1.480069e+000 205 206 208
2.545603e-001 -1.093458e-001 -1.492598e+000 151 151 150
6.368643e-001 -6.639684e-002 -1.989628e+000 103 111 105
4.780309e-002 -2.055827e-001 -1.410153e+000 31 59 33
-4.648612e-002 -2.380133e-001 -1.358090e+000 182 128 121
3.088717e-001 -1.434459e-001 -1.534835e+000 61 43 38
2.727428e-001 -1.575622e-001 -1.515000e+000 139 111 109
3.098143e-001 -1.512811e-001 -1.526999e+000 100 57 58
2.334734e-001 -1.716101e-001 -1.473609e+000 73 69 71
2.324453e-001 -1.755380e-001 -1.474444e+000 96 76 81
2.234982e-001 -2.707401e-001 -1.461409e+000 146 109 6
2.290374e-001 -2.697853e-001 -1.439005e+000 212 196 95
2.639415e-001 -2.683123e-001 -1.469430e+000 141 107 34
3.784298e-001 -2.493295e-001 -1.477639e+000 190 201 132
2.213625e-001 -3.163089e-001 -1.391966e+000 30 28 19
2.032538e-001 -3.456151e-001 -1.354960e+000 100 120 112
3.685503e-001 -2.877203e-001 -1.392722e+000 65 92 86
3.659020e-001 -3.032041e-001 -1.430859e+000 85 93 98
3.260718e-001 -3.351880e-001 -1.394935e+000 117 132 127
3.496343e-001 -3.330113e-001 -1.385468e+000 106 112 100
4.561241e-001 3.266504e-001 -1.801417e+000 111 113 96
3.641983e-001 1.491088e-001 -1.826020e+000 208 241 107
2.881426e-001 -2.426348e-003 -1.523952e+000 103 0 0
2.975588e-001 -2.099810e-002 -1.530244e+000 84 11 7
2.789770e-001 -3.447784e-002 -1.516318e+000 221 225 223
2.131701e-001 -5.494906e-002 -1.464488e+000 214 219 216
2.432311e-001 -5.657654e-002 -1.488729e+000 12 16 16
2.924294e-001 -5.047401e-002 -1.530744e+000 219 220 219
2.645000e-001 -6.273287e-002 -1.507013e+000 210 216 212
2.848298e-001 -7.146165e-002 -1.519912e+000 27 29 27
1.904671e-001 -1.191015e-001 -1.449356e+000 208 203 196
3.813000e-002 -2.389208e-001 -1.402143e+000 84 149 113
6.612788e-002 -2.991169e-001 -1.411605e+000 51 93 62
1.931411e-001 -3.437917e-001 -1.366305e+000 90 106 99
3.101257e-001 -3.304613e-001 -1.401737e+000 42 51 53
1.314925e-001 -3.857829e-001 -1.279195e+000 17 25 24
1.033598e-001 -4.016510e-001 -1.232205e+000 112 112 107
2.213363e-001 4.491286e-001 -1.640050e+000 175 184 180
3.567903e-001 4.908963e-001 -1.756554e+000 149 165 157
9.903747e-003 3.885204e-001 -1.609940e+000 146 139 131
4.120856e-001 3.274787e-001 -1.789795e+000 140 160 134
5.001925e-001 2.076130e-001 -1.882611e+000 138 135 122
5.858257e-001 2.365819e-001 -1.936015e+000 138 131 126
5.568616e-001 2.189345e-001 -1.907852e+000 199 208 197
-3.911414e-002 3.757742e-002 -1.391411e+000 1 68 103
1.203739e-002 4.876777e-002 -1.451176e+000 184 180 191
-3.024883e-003 2.536950e-002 -1.379163e+000 47 57 49
2.079213e-001 1.703179e-002 -1.462179e+000 157 93 59
-4.552530e-002 -1.083064e-001 -1.371291e+000 203 186 152
2.248801e-001 -3.917488e-002 -1.476238e+000 175 176 178
2.968577e-001 -2.393508e-002 -1.531054e+000 62 11 9
2.320532e-001 -5.353080e-002 -1.479178e+000 197 200 193
2.830398e-001 -6.932635e-002 -1.523559e+000 25 25 27
2.793585e-001 -1.001469e-001 -1.511747e+000 216 217 211
-1.964339e-002 -2.499461e-001 -1.338500e+000 192 94 114
6.739290e-002 -2.699001e-001 -1.411350e+000 37 64 42
3.621425e-001 -2.649480e-001 -1.441893e+000 37 43 9
3.782624e-001 -2.646684e-001 -1.477084e+000 143 165 57
2.076465e-001 4.568428e-001 -1.621217e+000 138 135 120
-2.423874e-002 3.591001e-001 -1.569656e+000 83 71 64
-8.338003e-002 1.486856e-001 -1.409028e+000 195 205 167
6.036396e-003 1.605131e-001 -1.463789e+000 193 217 179
-6.186106e-002 1.341400e-001 -1.396699e+000 182 210 164
5.224670e-001 2.294043e-001 -1.887360e+000 107 87 81
6.195338e-001 2.339035e-001 -1.949596e+000 202 203 207
4.954463e-001 1.714328e-001 -1.856645e+000 88 107 58
2.025456e-001 -4.882050e-002 -1.456157e+000 24 22 28
-1.763675e-003 4.207759e-001 -1.585733e+000 138 129 122
2.230443e-001 4.024096e-001 -1.682523e+000 221 239 250
2.641000e-001 2.484307e-001 -1.667203e+000 119 173 92
1.590171e-001 1.554557e-001 -1.644772e+000 22 23 20
4.544039e-001 2.287623e-001 -1.870137e+000 162 175 165
3.616835e-001 1.994927e-001 -1.840481e+000 22 46 18
1.817835e-001 -1.137181e-002 -1.425784e+000 206 208 205
2.241604e-001 -2.608514e-001 -1.454917e+000 127 89 6
3.258790e-001 3.174384e-001 -1.752220e+000 13 12 14
3.670893e-001 2.859612e-001 -1.763655e+000 177 197 117
2.203894e-001 4.749430e-003 -1.518993e+000 215 221 217
1.924341e-001 -5.557686e-002 -1.501275e+000 44 46 47
2.292347e-002 -1.726059e-002 -1.408462e+000 152 164 149
3.579980e-001 1.435849e-001 -1.825368e+000 36 78 12
3.292677e-001 1.179663e-001 -1.777414e+000 173 212 90
3.193475e-001 9.524896e-002 -1.786200e+000 56 100 31
2.833890e-001 -3.889190e-002 -1.525416e+000 77 81 75
5.683430e-001 -3.372072e-001 -1.441686e+000 84 81 70
-3.301749e-002 1.719036e-001 -1.446827e+000 199 202 171
2.184648e-001 -1.819094e-001 -1.468562e+000 32 27 15
2.825167e-001 -1.540413e-001 -1.515158e+000 158 124 123
-1.420424e-001 1.756666e-001 -1.324719e+000 80 55 45
-2.011512e-002 1.524329e-001 -1.441357e+000 172 220 190
5.747026e-001 2.256269e-001 -1.924417e+000 115 95 91
2.345180e-001 -7.480235e-002 -1.481981e+000 71 67 71
-5.801090e-002 -2.398486e-001 -1.364388e+000 192 154 141
1.985871e-001 1.930662e-002 -1.461104e+000 144 82 46
1.817388e-001 -2.378745e-002 -1.448462e+000 44 40 35
2.262402e-001 -7.444131e-002 -1.470576e+000 214 214 209
2.041511e-001 -8.390806e-002 -1.457018e+000 210 210 209
3.979670e-001 -3.917724e-001 -1.277471e+000 92 103 91
4.647087e-002 -1.113318e-002 -1.442768e+000 44 60 54
2.440645e-001 -7.201370e-003 -1.491603e+000 30 29 31
2.015458e-001 -3.807669e-002 -1.454720e+000 214 218 217
2.132815e-001 -1.185612e-001 -1.468442e+000 209 208 204
1.427873e-002 8.417750e-003 -1.421305e+000 80 90 79
2.616694e-001 -1.634997e-001 -1.494824e+000 174 133 132
4.976508e-002 -2.949302e-001 -1.421147e+000 84 149 97
-7.432213e-002 -1.763964e-001 -1.366695e+000 151 32 59
3.021076e-002 -1.963831e-001 -1.412486e+000 32 45 28
5.233311e-001 4.598927e-001 -1.926639e+000 139 144 139
4.828038e-001 2.415673e-001 -1.793231e+000 189 202 200
2.112592e-001 -2.700649e-002 -1.467074e+000 213 217 214
2.748716e-001 -8.222444e-002 -1.512980e+000 37 36 40
2.794180e-001 -9.257752e-002 -1.511387e+000 13 16 16
2.845850e-001 -1.508026e-001 -1.514825e+000 49 41 40
8.317354e-002 -2.591203e-001 -1.434846e+000 92 137 101
6.083685e-002 -2.717845e-001 -1.414452e+000 36 70 46
2.183091e-001 -1.087416e-001 -1.465369e+000 63 64 66
2.431200e-001 -9.742324e-002 -1.487868e+000 24 24 26
-6.290069e-002 6.214185e-002 -1.383476e+000 92 173 200
4.469153e-003 4.680192e-004 -1.397276e+000 126 135 125
3.209920e-001 1.550650e-001 -1.795855e+000 176 194 91
2.543199e-001 -6.766896e-002 -1.495851e+000 200 201 195
3.185509e-001 -1.447845e-001 -1.542122e+000 180 140 137
3.117102e-001 -4.708460e-001 -1.228718e+000 141 140 135
3.146005e-001 1.272248e-001 -1.774161e+000 181 209 89
2.285885e-001 -7.341014e-002 -1.476785e+000 172 172 167
2.755609e-001 -4.853310e-002 -1.510203e+000 22 22 23
2.776240e-001 -1.005373e-001 -1.513893e+000 217 219 212
3.158168e-001 -1.449870e-001 -1.539303e+000 186 145 142
2.155955e-003 -2.993047e-003 -1.393793e+000 154 167 162
2.270660e-001 3.984140e-001 -1.661082e+000 162 162 166
2.082776e-001 3.866468e-001 -1.652146e+000 30 36 36
3.470776e-001 2.924199e-001 -1.730619e+000 244 113 149
2.599412e-001 2.551666e-001 -1.663462e+000 135 175 106
4.834092e-001 2.007871e-001 -1.819659e+000 147 149 124
3.098868e-001 1.811361e-001 -1.835149e+000 196 228 94
3.382784e-001 1.561453e-001 -1.820720e+000 52 100 9
3.566537e-001 1.398236e-001 -1.841180e+000 76 132 49
2.632404e-001 1.023706e-001 -1.747887e+000 98 99 38
1.393007e-002 9.594272e-003 -1.404930e+000 158 172 165
2.130318e-001 -2.110659e-002 -1.468213e+000 177 179 177
2.317048e-001 -1.862051e-002 -1.481901e+000 218 217 213
3.038499e-002 -7.631405e-003 -1.430291e+000 178 191 184
3.597739e-002 -5.584428e-003 -1.433291e+000 151 167 157
2.007631e-001 -5.698385e-002 -1.454852e+000 180 180 178
2.930915e-001 -5.493365e-002 -1.528709e+000 220 224 223
2.087477e-001 -7.871995e-002 -1.463297e+000 98 98 95
2.648102e-001 -7.432196e-002 -1.508012e+000 183 184 179
2.028481e-001 -8.161909e-002 -1.462309e+000 214 212 214
2.197838e-001 -9.955589e-002 -1.465326e+000 61 61 61
2.296137e-001 -1.038444e-001 -1.475458e+000 215 215 210
2.432491e-001 -1.669552e-001 -1.480464e+000 103 78 76
2.259893e-001 -1.752185e-001 -1.468149e+000 158 124 125
9.000195e-002 -2.544158e-001 -1.440820e+000 117 149 117
9.284423e-002 -2.544259e-001 -1.441828e+000 99 128 101
2.217116e-001 -2.590850e-001 -1.459974e+000 138 99 8
3.495499e-001 -2.656747e-001 -1.460042e+000 99 112 54
3.266849e-001 -2.676498e-001 -1.453824e+000 82 89 4
3.387971e-001 -2.681902e-001 -1.457113e+000 120 125 71
3.706465e-001 -2.726585e-001 -1.459148e+000 28 25 13
3.225626e-001 -2.785472e-001 -1.453393e+000 60 52 9
2.846206e-001 -2.836523e-001 -1.443226e+000 173 151 19
4.661896e-002 -3.117855e-001 -1.386502e+000 73 71 68
5.701414e-001 -2.380727e-001 -1.892666e+000 183 185 180
5.154223e-001 -3.549616e-001 -1.351595e+000 34 42 38
6.536827e-001 -3.610690e-001 -1.433870e+000 178 182 174
6.072798e-001 -3.651292e-001 -1.410207e+000 172 174 168
4.605546e-001 -3.840651e-001 -1.300692e+000 110 116 111
3.745079e-001 -3.931215e-001 -1.279114e+000 79 78 75
6.040027e-001 -3.732037e-001 -1.404549e+000 187 188 180
4.083925e-001 -4.159736e-001 -1.366429e+000 145 139 127
2.284225e-001 3.870165e-001 -1.655196e+000 14 29 21
4.360118e-001 3.291573e-001 -1.801302e+000 204 216 216
3.538243e-001 2.589366e-001 -1.691353e+000 206 49 67
2.350623e-001 -8.862732e-002 -1.481179e+000 216 215 210
5.566117e-001 -2.489639e-001 -1.886929e+000 185 195 185
5.339413e-001 -2.538039e-001 -1.871699e+000 184 191 182
4.582319e-001 -3.727929e-001 -1.332578e+000 94 107 106
2.732621e-001 -3.930454e-001 -1.279926e+000 13 13 11
4.476842e-001 -4.195603e-001 -1.298643e+000 157 159 148
4.450948e-001 -4.312654e-001 -1.290625e+000 163 167 152
3.566796e-001 -4.627167e-001 -1.231985e+000 154 154 149
2.125156e-001 3.787626e-001 -1.655314e+000 151 159 167
3.330140e-001 1.630443e-001 -1.839236e+000 107 153 35
2.984997e-001 1.109329e-001 -1.786494e+000 103 145 72
2.891647e-001 -2.933961e-002 -1.527863e+000 222 227 225
2.312718e-001 -8.913807e-002 -1.471381e+000 31 29 32
3.680783e-001 3.065668e-002 -1.928020e+000 117 185 98
2.885547e-001 -9.573289e-002 -1.526505e+000 38 37 42
3.703214e-001 -2.537090e-001 -1.485789e+000 93 89 17
2.210654e-001 -2.581773e-001 -1.457912e+000 135 87 15
3.509189e-001 -2.620212e-001 -1.491346e+000 55 57 2
4.459495e-001 -3.782034e-001 -1.329571e+000 117 132 125
3.865973e-001 -3.921432e-001 -1.284789e+000 59 60 55
6.013022e-001 -3.754670e-001 -1.405184e+000 160 157 153
2.855386e-001 -4.080096e-001 -1.243133e+000 35 36 39
4.114692e-001 -4.275499e-001 -1.318845e+000 162 166 152
4.835421e-001 -4.280865e-001 -1.311405e+000 110 94 87
5.255166e-001 4.383996e-001 -1.906748e+000 107 77 67
2.554452e-001 -6.813460e-002 -1.506586e+000 33 30 37
-7.199435e-002 -2.074478e-001 -1.362344e+000 212 187 166
7.706934e-002 -2.719170e-001 -1.436821e+000 54 64 57
2.339157e-001 -1.153419e-001 -1.462701e+000 129 129 127
4.112382e-002 -1.978806e-001 -1.412590e+000 116 161 116
6.105025e-002 -2.453298e-001 -1.417924e+000 90 165 109
-2.167008e-001 3.495395e-001 -1.413727e+000 156 156 152
-2.155489e-001 3.365403e-001 -1.407742e+000 152 145 146
-2.272373e-001 3.341601e-001 -1.407790e+000 128 118 114
4.449371e-001 3.013742e-001 -1.806179e+000 161 176 166
