ply
format ascii 1.0
element face 0
property list uchar int vertex_indices
element vertex 861
property float x
property float y
property float z
property uchar diffuse_red
property uchar diffuse_green
property uchar diffuse_blue
end_header
1.740785e-001 -7.455831e-003 -1.436128e+000 209 211 208
3.462601e-002 -4.170183e-002 -1.423310e+000 94 183 129
-5.639218e-002 -1.020668e-001 -1.371373e+000 184 170 132
1.906953e-001 -1.039714e-001 -1.447680e+000 208 204 198
2.255712e-001 -1.797100e-001 -1.464841e+000 60 39 25
1.012756e-001 -2.830823e-001 -1.436983e+000 63 138 93
-1.526033e-001 2.036826e-001 -1.405012e+000 66 44 30
9.630294e-002 8.487831e-002 -1.526083e+000 215 225 235
-6.312135e-002 -9.636918e-003 -1.367076e+000 16 15 17
2.120164e-002 2.305117e-003 -1.403006e+000 68 83 77
3.592068e-002 -9.331278e-002 -1.418058e+000 90 177 118
3.944837e-001 4.283377e-001 -1.807821e+000 172 178 170
-1.456445e-001 2.457147e-001 -1.396337e+000 57 53 50
2.718474e-001 3.358462e-001 -1.627470e+000 86 121 68
3.510641e-002 1.098677e-002 -1.426261e+000 176 187 173
2.960813e-001 -5.548937e-002 -1.534331e+000 204 198 197
2.815787e-001 -6.191443e-002 -1.521171e+000 161 158 158
3.006147e-001 -6.793883e-002 -1.534842e+000 201 199 194
2.344113e-001 -1.127209e-001 -1.478751e+000 53 51 47
9.423405e-002 -2.700844e-001 -1.445755e+000 109 136 115
2.092233e-001 -1.015357e-001 -1.460152e+000 194 194 190
2.169753e-001 -1.219278e-001 -1.464481e+000 209 210 205
5.304569e-001 -1.344857e-001 -1.718118e+000 34 66 7
6.050306e-001 -2.142013e-001 -1.659525e+000 121 118 117
-2.730441e-002 4.113034e-001 -1.569424e+000 139 132 128
5.184445e-003 4.139114e-001 -1.590822e+000 126 122 113
6.318703e-002 -2.142478e-001 -1.431101e+000 31 32 26
5.813168e-002 -2.252110e-002 -1.437451e+000 12 11 9
1.840702e-001 -2.319908e-002 -1.449431e+000 97 93 92
2.901198e-001 -7.372478e-002 -1.529517e+000 55 59 53
2.776216e-001 -1.028195e-001 -1.512994e+000 208 207 205
2.513508e-001 4.153074e-003 -1.499116e+000 189 163 160
-2.311793e-001 3.879908e-001 -1.424693e+000 161 151 149
-2.027553e-002 3.718903e-001 -1.558008e+000 78 71 58
-2.153337e-001 3.324451e-001 -1.405419e+000 150 140 139
-2.251735e-001 2.606136e-001 -1.376238e+000 138 123 123
1.040007e-001 1.026885e-001 -1.561423e+000 175 82 113
-5.362541e-002 4.774853e-002 -1.395305e+000 17 114 146
-1.125740e-002 4.166736e-002 -1.438454e+000 208 115 146
1.885699e-001 1.667486e-002 -1.440769e+000 138 74 40
-6.422716e-002 1.442243e-002 -1.366995e+000 118 185 195
-4.673098e-002 1.036930e-002 -1.370026e+000 24 28 21
1.911333e-001 -2.165428e-002 -1.446399e+000 57 57 56
2.902057e-001 -3.092719e-002 -1.530441e+000 213 212 207
2.110547e-001 -8.232446e-002 -1.464383e+000 49 50 45
4.881058e-001 -1.432386e-001 -1.735483e+000 72 105 56
2.261293e-001 -1.219948e-001 -1.471624e+000 207 200 200
5.326852e-001 -1.432082e-001 -1.712109e+000 87 145 68
2.782473e-001 -2.647039e-001 -1.455073e+000 165 174 94
2.375041e-001 -3.357635e-001 -1.391807e+000 30 48 45
2.082791e-001 -3.446122e-001 -1.368086e+000 60 61 61
1.171733e-001 -3.653030e-001 -1.326079e+000 112 129 122
1.478379e-002 6.337555e-002 -1.466558e+000 183 73 107
-9.278500e-005 4.634744e-003 -1.384961e+000 209 216 211
5.895376e-002 -2.743711e-001 -1.413562e+000 45 67 41
2.820959e-001 -2.876917e-001 -1.445185e+000 170 149 15
2.010426e-001 -3.447129e-001 -1.361554e+000 33 38 34
2.214339e-001 4.772303e-001 -1.727654e+000 193 211 211
2.159684e-001 4.067964e-001 -1.671437e+000 189 219 233
-3.113767e-002 4.358237e-002 -1.416806e+000 188 85 115
7.836860e-002 -2.533159e-001 -1.430010e+000 53 103 61
8.161596e-002 -2.800298e-001 -1.435808e+000 33 59 38
1.898414e-001 -2.323035e-002 -1.444617e+000 15 14 12
2.746130e-001 -8.485664e-002 -1.531166e+000 216 217 212
3.674158e-001 4.906714e-001 -1.743841e+000 173 183 164
3.836764e-001 4.703784e-001 -1.766596e+000 178 190 174
-3.241317e-002 4.121113e-001 -1.573447e+000 124 121 116
3.171819e-001 4.379891e-001 -1.729347e+000 167 177 191
2.394503e-001 3.990329e-001 -1.662522e+000 35 61 62
-3.243378e-002 3.623058e-001 -1.554737e+000 138 134 132
1.547960e-002 2.876763e-001 -1.552189e+000 175 182 166
4.621779e-001 3.283521e-001 -1.813251e+000 147 150 136
4.890220e-001 1.952286e-001 -1.837788e+000 148 161 135
-6.824688e-002 1.636564e-001 -1.618092e+000 196 115 128
-1.264950e-001 1.578344e-001 -1.680396e+000 190 111 116
-1.263167e-001 1.051527e-001 -1.331557e+000 85 165 177
2.338141e-001 1.052416e-001 -1.598799e+000 71 99 47
5.316238e-002 6.630457e-002 -1.357452e+000 174 94 125
-5.603653e-002 7.033529e-002 -1.394683e+000 66 145 169
2.611760e-001 6.701524e-002 -1.537564e+000 139 109 105
1.348171e-001 5.854577e-002 -1.531094e+000 205 217 207
1.193380e-001 5.360938e-002 -1.520070e+000 178 187 172
1.187196e-001 4.404376e-002 -1.498280e+000 100 110 99
2.051561e-001 4.426378e-002 -1.466176e+000 170 142 131
1.122283e-001 3.960969e-002 -1.489485e+000 117 123 106
8.402477e-002 3.386619e-002 -1.455846e+000 177 190 180
9.618524e-002 3.561533e-002 -1.495652e+000 60 72 59
6.008213e-002 3.021226e-002 -1.454075e+000 192 201 190
1.995586e-001 2.979185e-002 -1.463277e+000 143 81 41
8.425564e-002 2.839898e-002 -1.473400e+000 63 76 59
1.863546e-001 2.526299e-002 -1.449282e+000 126 60 25
6.556141e-002 2.366635e-002 -1.458727e+000 68 79 70
5.579268e-002 1.778001e-002 -1.441155e+000 53 70 60
3.594849e-002 1.121185e-002 -1.427029e+000 110 121 109
5.656637e-002 9.849611e-003 -1.440805e+000 142 164 155
4.830568e-003 4.601494e-003 -1.396731e+000 167 175 167
3.731935e-002 8.029825e-003 -1.425546e+000 145 158 149
5.393946e-002 2.661839e-003 -1.441599e+000 60 75 65
3.655185e-002 -3.468641e-004 -1.425076e+000 61 75 65
1.975222e-001 -1.852787e-002 -1.456655e+000 221 218 219
1.897396e-001 -2.667634e-002 -1.449719e+000 213 209 210
4.156303e-002 -2.972180e-002 -1.431133e+000 82 146 108
2.110912e-001 -2.692119e-002 -1.464257e+000 220 216 215
1.883599e-001 -4.059004e-002 -1.447914e+000 62 54 54
2.475688e-001 -4.367115e-002 -1.494130e+000 222 222 221
2.140775e-001 -5.436614e-002 -1.468381e+000 208 208 203
2.002593e-001 -5.852661e-002 -1.456098e+000 206 209 207
2.347596e-001 -6.346240e-002 -1.481704e+000 146 144 142
2.718559e-001 -7.802667e-002 -1.505720e+000 212 217 210
2.778238e-001 -8.446715e-002 -1.515161e+000 35 35 33
7.081561e-001 -1.197916e-001 -2.021596e+000 170 165 172
2.160629e-001 -9.237067e-002 -1.461560e+000 197 201 194
2.090044e-001 -1.142435e-001 -1.461070e+000 207 207 205
2.021972e-001 -1.232477e-001 -1.452514e+000 140 68 60
2.041555e-001 -1.308876e-001 -1.455439e+000 114 87 19
3.177277e-001 -1.464928e-001 -1.544782e+000 162 119 115
3.259054e-001 -1.546582e-001 -1.551518e+000 99 10 3
6.203374e-001 -1.845477e-001 -1.649562e+000 73 119 60
2.618989e-001 -1.676903e-001 -1.499277e+000 160 113 113
2.497801e-001 -1.691324e-001 -1.486552e+000 165 123 119
6.012633e-001 -2.244719e-001 -1.662929e+000 50 47 48
5.274846e-002 -2.141175e-001 -1.412473e+000 86 126 96
3.531965e-001 -2.399176e-001 -1.562842e+000 224 192 98
4.659684e-001 -2.451182e-001 -1.510667e+000 64 89 13
4.746642e-001 -2.504166e-001 -1.516315e+000 21 47 2
4.797044e-001 -2.455243e-001 -1.496899e+000 64 108 47
4.271677e-001 -2.528132e-001 -1.540532e+000 33 36 9
3.983040e-002 -2.357336e-001 -1.402764e+000 54 95 53
4.951888e-001 -2.703528e-001 -1.505611e+000 96 188 99
5.069707e-001 -2.734179e-001 -1.497823e+000 77 164 78
5.526998e-001 -2.813059e-001 -1.489093e+000 91 191 103
4.774764e-001 -2.889431e-001 -1.513103e+000 43 44 34
4.907202e-001 -2.863564e-001 -1.485499e+000 133 128 100
5.226278e-001 -2.925699e-001 -1.479300e+000 48 59 59
5.232930e-001 -2.912434e-001 -1.473530e+000 57 70 74
5.627645e-001 -3.316543e-001 -1.438093e+000 72 82 94
1.578059e-001 -3.201123e-001 -1.371158e+000 176 208 211
5.508415e-001 -3.348560e-001 -1.410283e+000 98 112 110
1.341029e-001 -3.276413e-001 -1.373081e+000 32 47 45
3.077908e-001 -3.312614e-001 -1.389042e+000 104 120 123
1.587468e-001 -3.253323e-001 -1.356757e+000 115 148 202
2.129584e-001 -3.280093e-001 -1.370048e+000 51 52 58
2.018305e-001 -3.295560e-001 -1.366231e+000 64 69 83
1.765424e-001 -3.337103e-001 -1.366243e+000 91 92 100
1.642888e-001 -3.350463e-001 -1.363643e+000 103 102 102
2.247963e-001 -3.385205e-001 -1.369764e+000 79 84 87
3.263746e-001 -3.500817e-001 -1.375599e+000 123 163 144
2.063866e-001 -3.492250e-001 -1.365720e+000 16 15 11
2.893765e-001 -3.576070e-001 -1.376902e+000 185 197 198
1.812645e-001 -3.546522e-001 -1.352412e+000 16 23 18
1.381024e-001 -3.585657e-001 -1.342812e+000 109 126 120
-6.051658e-002 -3.897233e-001 -1.410829e+000 128 125 130
-4.855975e-002 -3.975339e-001 -1.416041e+000 129 128 136
4.801890e-001 -3.791626e-001 -1.317992e+000 11 20 9
4.353758e-001 -3.809649e-001 -1.305546e+000 26 26 26
-7.736606e-002 -4.095032e-001 -1.413546e+000 89 85 83
4.597629e-001 -3.920634e-001 -1.313393e+000 77 80 69
4.550287e-001 -3.894464e-001 -1.313835e+000 54 53 48
-6.811531e-002 -4.185463e-001 -1.412697e+000 117 113 117
1.628879e-001 -3.902690e-001 -1.288701e+000 26 42 31
3.907763e-001 -3.963993e-001 -1.294566e+000 88 83 77
3.693061e-001 -3.984103e-001 -1.287988e+000 88 85 80
3.260417e-001 -4.018228e-001 -1.275009e+000 82 76 70
3.034252e-001 -4.074702e-001 -1.275735e+000 84 81 73
3.264794e-001 -4.088472e-001 -1.275475e+000 119 151 140
1.893642e-001 -4.071646e-001 -1.264833e+000 132 155 141
2.692565e-001 -4.155487e-001 -1.280519e+000 31 39 30
-2.283191e-001 2.221376e-001 -1.372162e+000 149 134 130
7.991591e-002 2.717152e-002 -1.447554e+000 53 67 50
3.553978e-002 -8.794156e-003 -1.428686e+000 126 140 128
2.477407e-001 -8.955079e-003 -1.498238e+000 47 17 18
2.065524e-001 -1.311957e-002 -1.468318e+000 39 33 31
2.460514e-001 -1.761941e-002 -1.496000e+000 73 35 35
1.648266e-002 -6.238251e-002 -1.400717e+000 56 105 76
2.045670e-001 -8.089781e-002 -1.457972e+000 207 208 206
-6.097385e-002 -9.106380e-002 -1.372960e+000 206 180 149
2.358881e-001 -1.158501e-001 -1.478169e+000 29 24 21
1.917275e-001 -1.173646e-001 -1.454775e+000 213 204 196
2.855127e-001 -1.626736e-001 -1.558408e+000 189 146 141
3.505999e-001 -2.333924e-001 -1.571699e+000 196 63 18
8.590484e-002 -2.554258e-001 -1.442215e+000 104 139 98
1.921239e-001 -3.451437e-001 -1.363011e+000 108 102 84
2.311014e-001 3.961609e-001 -1.674881e+000 31 39 43
3.984020e-002 3.045522e-001 -1.627813e+000 208 238 191
3.505648e-001 2.829423e-001 -1.732494e+000 227 111 174
2.901024e-001 2.644318e-001 -1.670531e+000 103 0 0
3.195240e-001 2.668404e-001 -1.682655e+000 216 95 157
-1.639395e-001 1.872419e-001 -1.384234e+000 196 211 172
1.711535e-001 1.298228e-001 -1.614825e+000 22 55 32
2.769593e-001 6.924132e-002 -1.515633e+000 226 192 183
8.267914e-002 2.880433e-002 -1.433980e+000 48 62 48
1.058572e-001 1.243288e-002 -1.420080e+000 47 36 29
5.551625e-002 5.694252e-003 -1.439145e+000 140 159 148
3.424026e-002 -6.932538e-003 -1.418545e+000 136 150 139
2.468137e-001 -1.389645e-002 -1.486753e+000 58 12 12
2.032977e-001 -3.986721e-002 -1.453558e+000 215 219 218
2.445623e-001 -9.630088e-002 -1.489803e+000 34 35 33
5.185775e-001 -1.275224e-001 -1.728808e+000 106 158 78
2.047148e-001 -1.345548e-001 -1.454420e+000 103 81 28
2.322691e-001 -1.750976e-001 -1.471440e+000 124 88 86
-8.364270e-002 -1.622389e-001 -1.350844e+000 127 168 169
2.727683e-001 -1.808024e-001 -1.513682e+000 202 159 65
3.658302e-001 -2.256409e-001 -1.570474e+000 49 20 11
4.671401e-001 -2.601638e-001 -1.509340e+000 236 239 89
4.828419e-001 -2.752938e-001 -1.516653e+000 19 38 4
5.058330e-001 -2.720576e-001 -1.489228e+000 77 164 80
5.442410e-001 -2.848791e-001 -1.518465e+000 103 197 109
5.008131e-001 -3.015130e-001 -1.474121e+000 87 138 123
2.059319e-001 -3.217039e-001 -1.409216e+000 133 156 204
2.854513e-002 3.551307e-001 -1.597069e+000 117 107 100
-1.605770e-002 3.270252e-001 -1.553105e+000 229 237 240
-1.442388e-001 1.996176e-001 -1.410535e+000 73 59 34
-1.222082e-001 1.981720e-001 -1.401689e+000 223 237 235
1.689078e-001 1.406803e-001 -1.623385e+000 28 65 36
2.693110e-001 5.829543e-002 -1.535945e+000 217 221 214
6.460925e-003 -1.102199e-002 -1.392755e+000 154 174 163
2.376038e-001 -5.784442e-002 -1.473566e+000 110 115 111
2.363657e-001 -8.859997e-002 -1.469496e+000 57 54 50
-6.717646e-002 -2.148355e-001 -1.355606e+000 201 175 156
5.580444e-001 -3.163568e-001 -1.448909e+000 100 120 138
-1.175251e-001 2.036327e-001 -1.404638e+000 227 235 237
-1.569062e-001 1.100774e-001 -1.313165e+000 204 212 178
9.241951e-002 2.352990e-002 -1.459513e+000 200 188 155
2.070943e-001 -2.004045e-002 -1.498309e+000 85 83 78
2.684026e-001 -1.840960e-001 -1.502616e+000 217 193 49
6.671689e-002 -2.461263e-001 -1.421706e+000 90 165 106
-1.151899e-001 2.116952e-001 -1.409032e+000 227 234 238
5.549604e-002 -1.781093e-001 -1.429702e+000 100 163 101
3.322531e-001 5.215253e-001 -1.724800e+000 158 175 167
-2.537134e-001 3.915856e-001 -1.430498e+000 130 115 117
-2.166296e-002 4.335288e-001 -1.573979e+000 120 122 118
-2.192066e-002 4.279783e-001 -1.571863e+000 116 111 110
-3.016507e-002 4.216139e-001 -1.567669e+000 139 140 135
-2.201652e-001 3.598629e-001 -1.416296e+000 126 117 118
-2.283514e-001 3.469890e-001 -1.406681e+000 131 117 121
2.699873e-001 4.353492e-001 -1.736441e+000 87 95 82
3.211610e-001 4.407064e-001 -1.760180e+000 200 219 231
-2.124553e-001 3.406327e-001 -1.408793e+000 117 106 107
3.244891e-001 4.383701e-001 -1.745414e+000 62 88 93
2.337993e-001 4.180155e-001 -1.685570e+000 180 196 206
3.164985e-001 4.360854e-001 -1.730590e+000 59 83 88
-2.286258e-001 3.270005e-001 -1.410052e+000 90 72 73
-2.366860e-001 3.106849e-001 -1.408319e+000 92 68 62
3.799039e-001 4.170407e-001 -1.786557e+000 191 214 205
3.803450e-001 4.079748e-001 -1.786351e+000 195 222 214
5.573658e-001 4.332798e-001 -1.931858e+000 53 44 56
-2.144776e-001 2.972846e-001 -1.393490e+000 158 152 152
3.996459e-001 3.849835e-001 -1.800497e+000 189 207 191
2.646577e-002 3.086397e-001 -1.622612e+000 96 95 89
4.066199e-001 3.821523e-001 -1.804407e+000 159 176 158
5.814098e-002 3.078834e-001 -1.636807e+000 150 140 130
4.035916e-001 3.718601e-001 -1.805318e+000 198 216 208
3.874393e-001 3.347536e-001 -1.856626e+000 166 194 172
4.194192e-001 3.539513e-001 -1.807884e+000 121 136 111
-2.390574e-001 2.333406e-001 -1.394407e+000 138 127 131
4.273266e-001 3.539758e-001 -1.806145e+000 182 199 187
4.242854e-001 3.331231e-001 -1.797791e+000 184 200 183
4.899947e-001 3.379875e-001 -1.812473e+000 194 205 200
4.283561e-001 3.123430e-001 -1.809467e+000 182 202 191
5.815499e-001 3.251371e-001 -1.989739e+000 87 86 84
4.728486e-001 3.190366e-001 -1.809371e+000 175 186 180
-2.494475e-001 1.830745e-001 -1.368197e+000 117 98 90
5.907837e-001 3.087786e-001 -1.991243e+000 90 93 86
4.385880e-001 2.950729e-001 -1.811639e+000 164 185 170
5.913624e-001 3.022908e-001 -2.000076e+000 44 46 40
4.558030e-001 2.718587e-001 -1.802389e+000 151 167 143
3.495014e-001 2.626907e-001 -1.691762e+000 252 143 218
4.749881e-001 2.789033e-001 -1.798874e+000 197 217 211
3.821173e-001 2.266616e-001 -1.862597e+000 150 185 88
4.650952e-001 2.604639e-001 -1.802101e+000 116 129 109
4.727200e-001 2.591428e-001 -1.803123e+000 177 194 188
3.713010e-001 2.032087e-001 -1.869983e+000 74 138 59
4.836759e-001 2.202737e-001 -1.822168e+000 120 130 105
5.585421e-001 2.179676e-001 -1.920658e+000 207 210 208
5.559418e-001 2.067064e-001 -1.916663e+000 119 87 71
4.872836e-001 1.955245e-001 -1.842139e+000 159 174 151
3.643602e-001 1.480649e-001 -1.838619e+000 194 230 106
-1.021274e-001 1.134174e-001 -1.352028e+000 181 106 109
3.594681e-001 1.443655e-001 -1.831413e+000 62 108 16
-1.487280e-001 9.914990e-002 -1.304834e+000 181 149 125
5.506665e-001 1.519838e-001 -1.935317e+000 177 185 176
4.642610e-001 1.419887e-001 -1.844610e+000 60 116 51
5.124305e-001 1.334452e-001 -1.931923e+000 86 80 67
5.204821e-001 1.352487e-001 -1.934022e+000 123 108 92
5.305460e-001 1.305641e-001 -1.932821e+000 126 115 105
6.409958e-001 1.439929e-001 -2.024965e+000 141 138 145
6.432806e-001 1.341094e-001 -2.025551e+000 112 106 113
1.767359e-001 9.648489e-002 -1.590196e+000 112 148 126
-6.803184e-002 7.099532e-002 -1.381520e+000 36 129 157
-5.730637e-002 6.851313e-002 -1.386910e+000 44 136 161
1.959962e-001 7.579635e-002 -1.587417e+000 185 185 159
1.317150e-001 5.182302e-002 -1.530395e+000 47 57 43
6.122286e-002 2.972508e-002 -1.454309e+000 140 152 137
2.875622e-001 7.242698e-002 -1.534292e+000 182 168 148
1.286702e-002 1.235985e-002 -1.402176e+000 154 165 153
-2.304827e-002 7.978460e-003 -1.359298e+000 87 104 86
1.019004e-002 6.461581e-003 -1.391614e+000 128 142 133
3.612132e-001 8.641741e-002 -1.519711e+000 138 204 114
4.427530e-001 9.937649e-002 -1.543199e+000 63 127 44
2.740946e-002 -1.216448e-002 -1.417646e+000 84 99 91
4.149564e-001 8.090989e-002 -1.525933e+000 84 157 59
2.646634e-001 2.350973e-003 -1.515184e+000 127 9 1
2.480925e-001 -1.855706e-003 -1.499183e+000 188 181 181
2.098368e-001 -1.354215e-002 -1.464718e+000 69 69 71
2.163193e-001 -1.445882e-002 -1.471245e+000 156 156 152
2.564119e-001 -1.036221e-002 -1.504931e+000 229 44 38
2.740959e-001 -1.307881e-002 -1.518747e+000 153 13 11
2.034513e-001 -1.870125e-002 -1.459428e+000 17 15 16
2.279647e-001 -2.097169e-002 -1.478661e+000 34 33 33
2.476166e-001 -2.030186e-002 -1.497220e+000 77 14 10
2.533754e-001 -1.992655e-002 -1.498537e+000 158 49 47
2.091515e-001 -2.449131e-002 -1.467140e+000 209 212 209
2.297485e-001 -2.652221e-002 -1.482045e+000 22 23 23
2.304242e-001 -2.822720e-002 -1.486979e+000 49 48 50
2.190181e-001 -3.078499e-002 -1.471515e+000 20 20 21
2.368030e-001 -2.945616e-002 -1.488548e+000 94 87 80
6.501237e-001 -6.031613e-002 -1.959914e+000 183 192 189
2.645070e-001 -3.788875e-002 -1.506866e+000 183 184 181
2.339805e-001 -4.642968e-002 -1.476460e+000 173 176 167
6.678174e-001 -7.461010e-002 -1.973941e+000 126 133 137
2.780921e-001 -5.273331e-002 -1.518539e+000 88 87 88
2.050892e-001 -5.809409e-002 -1.460612e+000 43 48 42
2.735423e-001 -5.410618e-002 -1.515312e+000 24 21 23
6.763234e-001 -8.734192e-002 -1.991543e+000 168 169 167
2.564439e-001 -5.965274e-002 -1.499073e+000 95 96 91
2.131771e-001 -6.809862e-002 -1.470126e+000 25 23 24
2.344644e-001 -6.352612e-002 -1.482231e+000 125 125 121
6.829016e-001 -8.598364e-002 -1.976755e+000 98 103 103
2.677411e-001 -6.500286e-002 -1.511204e+000 211 212 209
6.774023e-001 -9.957069e-002 -1.979665e+000 104 90 79
2.425137e-001 -7.337036e-002 -1.489932e+000 219 217 215
2.799393e-001 -7.448905e-002 -1.517913e+000 109 116 109
2.708133e-001 -7.067111e-002 -1.494401e+000 183 190 182
2.581026e-001 -8.173315e-002 -1.501880e+000 199 203 201
3.030974e-001 -8.080505e-002 -1.535495e+000 163 164 164
2.774489e-001 -8.796598e-002 -1.515943e+000 44 41 41
3.017250e-001 -8.740510e-002 -1.533694e+000 93 94 92
2.911989e-001 -9.491262e-002 -1.526045e+000 78 84 80
3.054123e-001 -9.351388e-002 -1.537835e+000 196 199 194
2.868607e-001 -9.984768e-002 -1.520227e+000 180 179 177
2.449872e-001 -1.028122e-001 -1.487024e+000 25 24 20
2.629592e-001 -1.077954e-001 -1.503413e+000 216 218 217
2.742595e-001 -1.048512e-001 -1.512573e+000 202 198 200
2.542956e-001 -1.123190e-001 -1.494114e+000 138 136 136
1.947631e-001 -1.227067e-001 -1.443723e+000 200 182 170
2.051297e-001 -1.177016e-001 -1.446266e+000 177 158 52
5.016753e-001 -1.450224e-001 -1.729834e+000 69 113 50
-6.286271e-002 -2.065437e-001 -1.349801e+000 197 169 149
3.185532e-001 -1.464772e-001 -1.543861e+000 164 130 126
3.036913e-001 -1.493874e-001 -1.528572e+000 123 96 92
3.069451e-001 -1.490552e-001 -1.534970e+000 137 113 110
3.274117e-001 -1.548158e-001 -1.549054e+000 113 12 3
5.216569e-002 -2.116663e-001 -1.413415e+000 77 114 88
2.505970e-001 -1.679279e-001 -1.489713e+000 143 116 107
2.775486e-001 -1.633389e-001 -1.506575e+000 169 129 128
4.335504e-002 -2.192081e-001 -1.404048e+000 23 70 33
5.502066e-002 -2.211847e-001 -1.415407e+000 86 128 98
2.716414e-001 -1.779820e-001 -1.502850e+000 160 120 36
6.599466e-001 -1.399152e-001 -1.630632e+000 52 125 58
3.555717e-001 -2.363453e-001 -1.571528e+000 210 53 40
6.460451e-001 -1.484784e-001 -1.637023e+000 91 172 98
3.609569e-001 -2.366322e-001 -1.572186e+000 213 119 107
6.221591e-001 -1.633650e-001 -1.634415e+000 82 165 92
6.322563e-001 -1.545198e-001 -1.627256e+000 95 193 110
1.048379e-001 -2.893797e-001 -1.449110e+000 63 129 87
-5.138753e-003 -3.085355e-001 -1.375006e+000 112 148 165
3.502802e-002 -2.957440e-001 -1.387494e+000 40 40 37
6.081165e-001 -2.162413e-001 -1.669014e+000 117 130 120
4.594965e-001 -2.194298e-001 -1.539336e+000 93 120 63
2.174314e-001 -2.894731e-001 -1.442496e+000 210 215 115
7.996186e-001 -1.856807e-001 -1.703839e+000 125 155 78
4.608549e-001 -2.489534e-001 -1.530220e+000 143 171 64
1.114948e+000 -6.783834e-001 -2.858912e+000 76 60 72
2.287921e-001 -3.017581e-001 -1.435520e+000 68 59 1
-3.484514e-002 -4.182058e-001 -1.425212e+000 69 67 68
1.581192e-001 -3.169838e-001 -1.369833e+000 185 208 226
-4.522812e-002 -4.425938e-001 -1.431334e+000 72 66 68
1.543724e-001 -3.289718e-001 -1.367569e+000 75 107 161
2.032781e-001 -3.131407e-001 -1.380445e+000 94 127 167
4.819922e-001 -2.667565e-001 -1.514733e+000 66 158 66
2.489111e-001 -3.202476e-001 -1.414073e+000 93 118 108
1.754832e-001 -3.262551e-001 -1.366649e+000 94 126 169
2.698006e-001 -3.168739e-001 -1.422196e+000 103 137 123
2.267780e-001 -3.282303e-001 -1.402019e+000 103 115 108
2.062483e-001 -3.206368e-001 -1.368149e+000 130 160 201
4.645883e-001 -2.891546e-001 -1.515001e+000 31 25 11
1.952691e-001 -3.314305e-001 -1.366768e+000 49 57 84
2.067293e-001 -3.292136e-001 -1.366791e+000 57 60 76
2.135418e-001 -3.265427e-001 -1.366984e+000 47 47 55
2.493763e-001 -3.283064e-001 -1.395259e+000 41 53 53
5.036449e-001 -2.812268e-001 -1.506781e+000 102 205 119
2.906292e-001 -3.206068e-001 -1.401508e+000 66 69 69
1.412470e-001 -3.561744e-001 -1.344157e+000 106 114 109
1.114232e-001 -3.692413e-001 -1.326078e+000 47 42 45
3.057148e-001 -3.286924e-001 -1.403661e+000 106 124 121
5.200924e-001 -2.723322e-001 -1.472397e+000 107 194 126
1.235271e-001 -3.693991e-001 -1.321408e+000 115 130 127
2.171125e-001 -3.487950e-001 -1.355488e+000 97 112 103
2.528006e-001 -3.378695e-001 -1.371717e+000 63 71 82
4.024147e-001 -3.105218e-001 -1.433332e+000 42 52 51
2.635113e-001 -3.416147e-001 -1.370671e+000 66 77 74
1.349987e-001 -3.689114e-001 -1.313462e+000 56 72 64
1.573095e-001 -3.697176e-001 -1.324290e+000 101 120 110
-2.496878e-001 4.158273e-001 -1.443008e+000 77 62 65
3.557637e-001 5.069414e-001 -1.759860e+000 134 145 128
-3.153834e-002 3.710835e-001 -1.549764e+000 113 110 107
-2.120391e-001 3.371538e-001 -1.404102e+000 161 157 156
3.650922e-001 4.334944e-001 -1.788716e+000 157 171 158
-1.653949e-002 3.384543e-001 -1.556731e+000 47 38 34
-3.668795e-003 3.301288e-001 -1.551255e+000 213 209 208
4.445961e-001 3.846541e-001 -1.806827e+000 191 200 189
4.208654e-001 3.350496e-001 -1.812157e+000 194 212 195
3.737025e-001 2.424912e-001 -1.849564e+000 79 131 59
4.963354e-001 2.244104e-001 -1.859041e+000 122 122 116
1.675564e-002 6.029506e-002 -1.455117e+000 142 124 146
2.171091e-003 2.821946e-003 -1.393142e+000 192 202 195
5.772134e-001 2.391901e-002 -1.838975e+000 27 35 10
2.110987e-001 -1.471687e-002 -1.462282e+000 24 25 27
2.386466e-001 -1.768272e-002 -1.488534e+000 215 214 213
2.246764e-001 -3.475295e-002 -1.476834e+000 208 214 208
2.310266e-001 -5.182584e-002 -1.480347e+000 200 203 194
1.909694e-001 -5.897481e-002 -1.449391e+000 19 19 19
2.107289e-001 -5.847965e-002 -1.467202e+000 216 222 216
2.806373e-001 -6.104526e-002 -1.521319e+000 218 223 222
2.393892e-001 -6.767576e-002 -1.481561e+000 192 195 187
2.586982e-001 -6.600903e-002 -1.502117e+000 22 26 25
2.916138e-001 -7.101213e-002 -1.529487e+000 217 219 216
3.009951e-001 -9.537409e-002 -1.531442e+000 218 215 212
1.928482e-001 -1.213330e-001 -1.463680e+000 203 198 194
3.514865e-001 -2.305209e-001 -1.567915e+000 230 45 28
3.464585e-001 -2.420232e-001 -1.569589e+000 221 193 70
3.465592e-001 -2.540152e-001 -1.570824e+000 74 52 5
3.101094e-001 -2.731931e-001 -1.482586e+000 242 245 96
2.278667e-001 -3.023101e-001 -1.430874e+000 32 26 7
2.521365e-001 -3.223801e-001 -1.408365e+000 108 128 123
3.683401e-001 4.937863e-001 -1.747555e+000 157 172 163
1.129773e-001 4.202777e-001 -1.619609e+000 74 62 58
-3.334767e-002 3.815323e-001 -1.557912e+000 145 146 143
-1.921752e-001 3.195471e-001 -1.380726e+000 89 74 71
2.541865e-002 3.577152e-001 -1.599822e+000 128 124 113
4.221317e-001 3.479013e-001 -1.804050e+000 119 131 104
-1.662806e-001 2.420642e-001 -1.412340e+000 72 59 54
6.145003e-002 2.014246e-001 -1.543716e+000 205 221 181
4.616545e-001 2.736934e-001 -1.802908e+000 129 148 134
4.986163e-001 2.543720e-001 -1.890229e+000 103 107 99
5.077609e-001 2.367816e-001 -1.928153e+000 71 65 57
4.990301e-001 2.195552e-001 -1.869991e+000 116 117 108
5.518369e-001 2.092724e-001 -1.932253e+000 80 67 51
4.868330e-001 1.959523e-001 -1.836894e+000 143 151 130
5.137457e-001 1.638058e-001 -1.926682e+000 99 97 86
5.342486e-001 1.322933e-001 -1.947530e+000 48 47 31
4.744409e-001 1.405883e-001 -1.836440e+000 68 128 54
-6.829697e-002 6.924220e-002 -1.381544e+000 11 97 123
-5.137286e-002 1.937100e-002 -1.365313e+000 203 202 191
-6.014110e-002 1.043187e-002 -1.361597e+000 38 64 79
2.825910e-001 6.897766e-002 -1.540836e+000 210 186 172
1.421495e-002 8.988781e-003 -1.402646e+000 97 109 95
6.988592e-002 5.459542e-003 -1.422805e+000 20 21 17
1.712747e-001 -5.016194e-003 -1.432453e+000 210 206 202
1.933277e-001 -5.860611e-002 -1.453306e+000 14 15 18
2.762332e-001 -4.829325e-002 -1.513147e+000 33 28 29
2.046099e-001 -7.351923e-002 -1.462875e+000 206 209 203
-8.304290e-002 -1.596566e-001 -1.345409e+000 119 180 184
2.002397e-001 -1.233181e-001 -1.493182e+000 173 175 173
2.475895e-001 -1.132252e-001 -1.488746e+000 211 209 206
5.597742e-001 -1.199725e-001 -1.751336e+000 88 78 67
2.029601e-001 -1.411543e-001 -1.454417e+000 215 195 72
3.232466e-001 -1.558446e-001 -1.552017e+000 56 8 1
2.869599e-001 -1.578474e-001 -1.495620e+000 35 14 13
2.205730e-001 -1.870191e-001 -1.467995e+000 33 24 5
3.544920e-002 -2.314103e-001 -1.399016e+000 105 162 124
4.892487e-002 -2.279992e-001 -1.405586e+000 50 96 64
-4.439871e-002 -3.241648e-001 -1.379789e+000 168 60 83
6.049849e-001 -2.231591e-001 -1.652768e+000 23 22 20
2.060618e-001 -3.012736e-001 -1.415466e+000 121 120 116
1.083182e-001 5.090392e-001 -1.684110e+000 144 144 137
4.036176e-001 4.337230e-001 -1.792595e+000 123 123 103
4.834717e-001 3.776226e-001 -1.839789e+000 173 177 173
4.311133e-001 3.177431e-001 -1.827400e+000 160 181 176
4.572689e-001 3.294372e-001 -1.811787e+000 110 116 100
2.813242e-001 2.649658e-001 -1.678360e+000 87 1 0
2.629967e-001 2.553398e-001 -1.669324e+000 109 143 77
4.750826e-001 1.830160e-001 -1.798624e+000 123 178 94
1.993170e-001 2.024865e-002 -1.471321e+000 128 79 50
1.954809e-001 -1.026267e-001 -1.468326e+000 29 28 26
2.753117e-001 -8.778486e-002 -1.483031e+000 71 73 69
5.488890e-001 -1.378773e-001 -1.710851e+000 102 174 86
4.380800e-002 4.523079e-001 -1.610789e+000 145 140 134
2.942551e-002 3.498342e-001 -1.613575e+000 125 114 102
3.856338e-001 4.189884e-001 -1.787412e+000 189 207 198
-1.558968e-002 3.370110e-001 -1.571389e+000 70 57 47
-2.701319e-004 2.994499e-001 -1.580563e+000 177 175 162
-1.322143e-001 2.632808e-001 -1.387947e+000 214 216 220
-1.590405e-001 2.335352e-001 -1.400842e+000 66 47 35
1.272046e-001 2.276808e-001 -1.621823e+000 194 231 187
2.740690e-001 2.592302e-001 -1.645415e+000 121 164 88
5.057160e-001 2.459072e-001 -1.903826e+000 90 92 85
1.642873e-001 1.159823e-001 -1.591888e+000 230 242 239
-1.290330e-001 -6.583729e-003 -1.327314e+000 182 113 138
-6.198979e-002 -1.066097e-001 -1.335809e+000 169 188 149
3.980965e-002 -9.920679e-002 -1.422673e+000 87 173 114
5.035546e-001 -1.217728e-001 -1.740367e+000 99 161 77
2.250610e-001 -1.714475e-001 -1.483153e+000 18 19 15
5.375996e-001 2.240704e-001 -1.875862e+000 173 166 156
1.572751e-001 1.719230e-001 -1.651070e+000 20 20 20
1.988481e-001 1.601933e-001 -1.678230e+000 114 189 94
4.589085e-001 1.877084e-001 -1.865603e+000 21 32 15
3.983551e-001 1.576831e-001 -1.772107e+000 118 180 94
4.593931e-001 1.447053e-001 -1.874074e+000 95 155 82
2.479586e-001 4.622677e-002 -1.535107e+000 219 220 213
-1.949170e-002 4.263938e-001 -1.567471e+000 118 119 111
9.047667e-002 4.427552e-001 -1.645455e+000 196 208 203
-3.308816e-002 3.817182e-001 -1.553792e+000 132 132 127
1.608215e-001 3.950903e-001 -1.626580e+000 130 126 120
2.456789e-001 4.087240e-001 -1.681662e+000 201 232 232
-1.673284e-001 3.143319e-001 -1.368058e+000 173 169 168
-2.067795e-001 3.078937e-001 -1.393263e+000 156 146 150
-2.204388e-002 3.395012e-001 -1.566311e+000 65 53 44
-1.408556e-001 2.678851e-001 -1.388841e+000 229 227 230
4.066025e-001 3.421799e-001 -1.783722e+000 158 178 157
4.320867e-001 3.060981e-001 -1.814447e+000 147 167 154
3.108125e-001 2.663796e-001 -1.683111e+000 230 103 155
3.783463e-001 2.161783e-001 -1.857186e+000 59 109 21
5.793524e-001 2.283128e-001 -1.950371e+000 144 141 136
5.583180e-001 2.192009e-001 -1.915494e+000 205 211 204
6.134608e-001 2.273444e-001 -2.014758e+000 77 71 73
4.884985e-001 1.760486e-001 -1.852321e+000 52 71 27
1.070036e-001 1.086319e-001 -1.560531e+000 209 100 135
8.009553e-002 9.525414e-002 -1.533564e+000 56 144 167
1.656533e-001 9.269632e-002 -1.372820e+000 179 87 114
3.307878e-002 7.509757e-002 -1.485977e+000 59 137 160
3.771606e-001 8.209688e-002 -1.102481e+000 104 150 79
-3.273241e-003 5.853737e-002 -1.442191e+000 81 168 193
5.986594e-002 6.983902e-002 -1.450828e+000 113 148 175
1.897417e-001 8.483618e-002 -1.583340e+000 80 91 89
-1.463912e-001 4.644749e-002 -1.592802e+000 62 139 164
-2.779279e-002 4.919192e-002 -1.420022e+000 187 81 118
-3.224306e-002 4.478996e-002 -1.414679e+000 172 77 105
-4.707082e-002 3.542187e-002 -1.396355e+000 61 144 172
2.646375e-001 7.108775e-002 -1.545914e+000 38 34 16
1.458748e-001 5.535507e-002 -1.531857e+000 84 92 82
1.140599e-001 3.537502e-002 -1.433810e+000 63 75 65
1.999776e-001 2.990977e-002 -1.461358e+000 167 100 57
-3.003012e-003 1.303920e-003 -1.387737e+000 168 176 168
1.639417e-001 1.888812e-002 -1.441425e+000 130 69 32
2.035386e-002 -1.347631e-003 -1.410066e+000 82 92 85
1.896845e-001 1.603203e-002 -1.453034e+000 136 69 36
1.749929e-001 1.196505e-002 -1.444130e+000 170 98 58
1.719019e-001 1.001516e-002 -1.437703e+000 159 92 55
1.641639e-001 7.806744e-003 -1.431132e+000 144 78 39
1.959982e-001 -3.027588e-002 -1.452615e+000 47 45 48
2.156430e-001 -3.316539e-002 -1.470445e+000 29 29 27
2.354582e-001 -3.212721e-002 -1.486089e+000 212 195 193
2.465567e-001 -4.298444e-002 -1.495152e+000 211 214 207
2.323849e-001 -4.857314e-002 -1.474477e+000 205 207 203
2.571976e-001 -6.174807e-002 -1.500367e+000 116 114 115
2.100323e-001 -8.182536e-002 -1.464418e+000 43 39 36
2.184146e-001 -8.189895e-002 -1.467317e+000 217 219 219
2.869768e-001 -7.246570e-002 -1.508293e+000 22 22 18
2.235127e-001 -9.175500e-002 -1.469391e+000 168 170 164
2.206323e-001 -1.085941e-001 -1.472315e+000 219 221 216
2.263114e-001 -1.081223e-001 -1.479193e+000 217 217 215
2.691955e-001 -1.612582e-001 -1.502607e+000 145 115 116
2.720515e-001 -1.657596e-001 -1.505253e+000 159 117 122
2.415688e-001 -1.759122e-001 -1.480546e+000 133 93 92
4.779686e-002 -2.003735e-001 -1.410802e+000 55 89 46
9.462749e-002 -2.526823e-001 -1.451305e+000 58 60 41
3.472620e-001 -2.597143e-001 -1.484012e+000 165 177 123
3.208398e-001 -2.635967e-001 -1.472728e+000 213 228 136
3.366508e-001 -2.628524e-001 -1.471836e+000 97 109 60
3.887848e-001 -2.581171e-001 -1.485019e+000 65 83 0
3.240115e-001 -2.724490e-001 -1.461556e+000 85 93 17
2.192889e-001 -2.859382e-001 -1.441004e+000 217 217 128
3.804394e-001 -2.653471e-001 -1.477741e+000 60 77 15
6.946446e-002 -3.068866e-001 -1.421894e+000 80 148 102
1.864533e-001 -2.937676e-001 -1.440248e+000 90 58 34
2.118124e-001 -2.917395e-001 -1.442345e+000 17 20 0
3.327207e-001 -2.754095e-001 -1.466176e+000 42 53 8
3.730066e-001 -2.771542e-001 -1.485686e+000 77 74 7
3.240647e-001 -2.840210e-001 -1.456158e+000 80 77 13
2.151833e-001 -3.063427e-001 -1.415720e+000 28 25 18
3.215561e-001 -3.072102e-001 -1.411657e+000 75 96 92
1.819894e-001 -3.261817e-001 -1.373261e+000 149 182 218
1.534378e-001 -3.375691e-001 -1.368539e+000 72 69 69
1.900776e-001 -3.312494e-001 -1.365476e+000 65 70 75
2.472877e-001 -3.342685e-001 -1.392145e+000 107 118 110
1.887655e-001 -3.404726e-001 -1.350291e+000 112 100 74
1.973692e-001 -3.486951e-001 -1.369915e+000 81 97 92
2.483753e-001 -3.460303e-001 -1.369588e+000 71 73 68
1.855296e-001 -3.574706e-001 -1.349450e+000 106 122 117
1.133104e-001 -3.776360e-001 -1.317057e+000 115 124 120
1.117070e-001 -3.829245e-001 -1.305455e+000 70 77 73
1.076368e-001 -3.857500e-001 -1.292254e+000 72 93 82
1.898892e-001 -3.870846e-001 -1.306633e+000 67 96 89
1.957208e-001 -4.076195e-001 -1.271143e+000 101 118 112
1.176810e-001 -4.174688e-001 -1.237811e+000 18 18 22
1.535547e-001 -4.146098e-001 -1.251343e+000 78 108 103
9.856624e-002 -4.251015e-001 -1.223828e+000 51 68 61
1.773612e-001 -4.145277e-001 -1.255489e+000 101 114 101
1.400205e-001 -4.215910e-001 -1.247731e+000 19 22 24
1.527986e-001 -4.203790e-001 -1.247509e+000 108 119 118
1.239978e-001 -4.257531e-001 -1.234711e+000 105 116 113
1.703865e-001 -4.232030e-001 -1.247216e+000 107 122 113
2.697738e-001 4.361330e-001 -1.739517e+000 126 172 107
4.109031e-001 3.740140e-001 -1.816457e+000 199 220 215
5.158166e-002 2.855631e-001 -1.635762e+000 233 241 246
7.928877e-002 2.814584e-001 -1.589483e+000 136 136 130
4.094499e-001 3.242278e-001 -1.824377e+000 94 111 75
5.841601e-001 3.179862e-001 -1.989912e+000 48 47 45
-4.119143e-002 -1.572441e-001 -1.380089e+000 132 168 170
3.163674e-001 -2.661516e-001 -1.470605e+000 232 244 123
3.340304e-001 -2.654394e-001 -1.459849e+000 126 134 95
3.648114e-001 -2.723698e-001 -1.458763e+000 37 38 11
1.353338e-001 -4.053431e-001 -1.265972e+000 25 25 29
2.203115e-001 4.875455e-001 -1.761554e+000 189 207 207
-2.469691e-002 4.091272e-001 -1.569769e+000 136 126 124
-2.765292e-003 3.300048e-001 -1.567344e+000 73 66 59
-1.442208e-001 2.392848e-001 -1.391299e+000 84 73 66
7.744418e-002 2.782918e-001 -1.573709e+000 234 241 245
1.196520e-001 2.838191e-001 -1.603871e+000 134 215 235
6.044412e-001 2.523997e-001 -1.979059e+000 20 16 19
4.764601e-001 2.053502e-001 -1.844186e+000 127 135 103
1.666925e-001 1.393716e-001 -1.642383e+000 17 30 27
1.808317e-001 1.233510e-001 -1.603934e+000 29 30 22
1.841614e-002 6.590402e-002 -1.462100e+000 190 87 119
-2.745611e-002 4.737471e-002 -1.413379e+000 185 86 117
1.024899e-001 5.563465e-002 -1.513695e+000 189 195 188
1.332428e-001 4.045795e-002 -1.427086e+000 126 138 126
-6.676168e-002 8.711927e-004 -1.369004e+000 19 19 22
1.675694e-001 2.089200e-002 -1.436009e+000 177 114 73
3.650349e-002 4.408354e-003 -1.423124e+000 133 144 136
4.623906e-002 -1.344382e-002 -1.442459e+000 27 38 34
2.675308e-001 1.284983e-003 -1.511317e+000 118 14 8
1.817133e-001 -2.423938e-002 -1.457237e+000 47 42 35
6.821896e-001 -3.552343e-002 -1.991794e+000 61 51 50
2.422052e-001 -1.733656e-001 -1.494282e+000 134 90 90
8.557405e-002 -2.760158e-001 -1.432581e+000 44 60 45
1.246915e-001 -3.934443e-001 -1.289197e+000 19 24 27
-2.097673e-001 3.387424e-001 -1.393720e+000 139 135 131
4.165865e-002 2.858894e-001 -1.619201e+000 229 239 237
2.526050e-002 2.529142e-003 -1.421473e+000 184 194 185
6.177575e-002 -2.031923e-001 -1.419823e+000 44 44 38
4.226837e-002 -2.578726e-001 -1.403893e+000 85 155 101
6.233278e-002 -2.717748e-001 -1.429712e+000 45 60 41
-3.783482e-003 -2.955910e-001 -1.402488e+000 77 153 166
5.118841e-002 -2.965867e-001 -1.407372e+000 82 144 96
9.355472e-002 4.493190e-001 -1.636936e+000 178 189 179
-1.494460e-002 3.563226e-001 -1.558834e+000 87 68 55
5.197238e-003 -5.775994e-002 -1.388821e+000 94 165 120
-6.140534e-002 -9.654688e-002 -1.370953e+000 204 188 153
7.263117e-002 -2.449770e-001 -1.415015e+000 97 170 106
7.576168e-002 -2.696604e-001 -1.420555e+000 39 46 37
9.858556e-002 -2.727909e-001 -1.444442e+000 112 136 119
2.277672e-002 2.873914e-001 -1.631172e+000 231 244 244
1.206956e-001 2.469425e-002 -1.432310e+000 196 181 159
7.277706e-002 -2.107791e-001 -1.431857e+000 40 35 31
-6.943603e-002 6.992064e-002 -1.381743e+000 55 137 161
2.313761e-001 -4.813644e-002 -1.480284e+000 184 183 179
2.363569e-001 -7.485000e-002 -1.476903e+000 34 33 32
2.048489e-001 -8.510010e-002 -1.456023e+000 216 214 213
1.917586e-001 -1.218982e-001 -1.446887e+000 223 204 191
3.586932e-001 5.111589e-001 -1.730294e+000 133 147 123
2.022677e-001 -1.345817e-001 -1.455961e+000 207 183 61
2.415340e-001 -8.059446e-002 -1.485799e+000 29 25 22
2.182589e-001 -1.369583e-001 -1.461855e+000 29 25 24
3.823249e-001 4.279801e-001 -1.790906e+000 193 206 199
2.866300e-001 1.479106e-001 -1.771530e+000 45 38 2
3.024042e-001 1.126853e-001 -1.782150e+000 88 120 59
3.218408e-001 1.138830e-001 -1.779200e+000 73 107 23
3.242452e-001 1.124437e-001 -1.785676e+000 125 157 62
-5.877665e-002 6.753756e-002 -1.382672e+000 52 149 178
-1.113862e-001 -8.498513e-004 -1.328451e+000 145 151 177
3.590437e-002 1.014622e-002 -1.421550e+000 119 138 129
3.126802e-002 3.210505e-003 -1.418482e+000 183 194 188
6.887983e-001 -2.236063e-002 -1.983592e+000 89 79 77
1.933058e-001 -2.010953e-002 -1.451923e+000 119 118 116
6.383971e-001 -4.391434e-002 -1.945769e+000 132 138 139
6.410423e-001 -4.303404e-002 -1.949170e+000 118 124 125
-5.183433e-002 -9.129991e-002 -1.363105e+000 207 165 146
1.876035e-001 -4.034863e-002 -1.448628e+000 20 17 16
2.151057e-001 -5.328017e-002 -1.466968e+000 177 180 177
2.229394e-001 -6.873256e-002 -1.471494e+000 14 14 12
2.987069e-001 -7.528051e-002 -1.533868e+000 86 83 85
2.032794e-001 -8.580873e-002 -1.461007e+000 210 210 201
2.374502e-001 -2.884317e-001 -1.427974e+000 184 177 64
-2.189221e-002 3.685054e-001 -1.560223e+000 66 59 51
5.519975e-001 2.131482e-001 -1.933515e+000 102 101 88
3.248814e-001 1.568947e-001 -1.788237e+000 174 194 84
5.288330e-001 1.470924e-001 -1.934251e+000 59 52 38
3.032498e-001 1.093734e-001 -1.773457e+000 90 133 64
2.596491e-001 -4.535593e-002 -1.503403e+000 6 6 10
2.483352e-001 -4.460366e-002 -1.493925e+000 212 219 213
2.842718e-001 -7.525918e-002 -1.524387e+000 13 17 13
1.980379e-001 -1.179578e-001 -1.456749e+000 126 58 51
5.208274e-003 3.950145e-001 -1.617069e+000 156 152 141
-9.264523e-003 2.249741e-001 -1.487196e+000 58 179 209
2.146589e-002 1.962913e-001 -1.483656e+000 210 209 175
-1.412654e-001 9.375050e-002 -1.297607e+000 170 126 111
3.483229e-002 -6.261249e-003 -1.421379e+000 100 117 109
1.929206e-001 -6.161314e-002 -1.447451e+000 27 26 26
-6.431757e-002 -2.327939e-001 -1.358443e+000 189 185 149
2.418030e-001 -1.727388e-001 -1.482933e+000 126 104 100
2.314206e-001 -6.549998e-002 -1.492308e+000 181 182 177
2.138511e-001 -7.586635e-002 -1.466533e+000 202 207 201
2.973768e-001 -8.664756e-002 -1.528159e+000 201 202 199
2.204191e-001 -1.139725e-001 -1.476085e+000 153 151 150
6.751932e-002 -1.675347e-001 -1.427500e+000 106 164 96
-4.678870e-002 -2.298324e-001 -1.383574e+000 167 181 140
2.330262e-003 -5.916009e-002 -1.391368e+000 77 160 114
4.088202e-001 3.310526e-001 -1.800761e+000 135 152 127
-1.709892e-002 1.598061e-001 -1.446216e+000 213 170 163
4.770411e-001 2.282994e-001 -1.818032e+000 166 178 165
1.321098e-002 6.928152e-002 -1.466387e+000 177 87 114
-5.317163e-002 4.733941e-002 -1.393916e+000 56 145 168
-8.855986e-003 5.620179e-002 -1.433494e+000 62 147 167
6.516994e-002 1.136832e-002 -1.449451e+000 75 75 67
1.764451e-001 2.266049e-002 -1.451735e+000 168 103 64
1.612588e-001 1.697710e-002 -1.430498e+000 153 85 40
1.836637e-001 1.650882e-002 -1.457490e+000 156 90 51
1.933014e-001 -2.173248e-002 -1.452616e+000 74 75 72
2.170038e-001 -1.784130e-002 -1.473247e+000 58 60 59
1.921899e-001 -3.735632e-002 -1.449298e+000 150 150 148
1.883166e-001 -4.106713e-002 -1.447374e+000 46 46 41
2.894675e-001 -3.009869e-002 -1.532506e+000 206 208 202
2.143493e-001 -6.697915e-002 -1.467207e+000 25 23 23
2.449884e-001 -6.301381e-002 -1.492191e+000 72 76 75
2.379777e-001 -7.541511e-002 -1.483712e+000 60 56 57
2.584706e-001 -8.217305e-002 -1.499515e+000 193 198 193
3.037672e-001 -8.101647e-002 -1.537618e+000 93 84 81
2.111661e-001 -9.601843e-002 -1.460357e+000 159 164 158
3.011851e-001 -8.765976e-002 -1.536933e+000 71 71 72
2.077184e-001 -1.020458e-001 -1.458696e+000 172 173 170
2.512691e-001 -1.711501e-001 -1.490709e+000 163 120 121
7.268243e-002 -2.620002e-001 -1.427492e+000 51 88 58
2.891744e-001 -2.635079e-001 -1.465933e+000 154 123 37
3.336837e-001 -2.612673e-001 -1.467206e+000 176 188 137
3.627373e-001 -2.766688e-001 -1.474345e+000 19 20 0
3.464463e-001 -3.152920e-001 -1.405940e+000 56 62 59
7.857347e-002 -3.706952e-001 -1.273506e+000 41 52 46
8.915899e-002 -3.768920e-001 -1.271549e+000 140 143 136
5.088376e-001 -3.674121e-001 -1.352099e+000 148 165 155
5.041259e-001 -3.745894e-001 -1.350049e+000 51 75 67
4.709211e-001 -3.876956e-001 -1.313797e+000 94 117 108
4.413652e-001 -3.916827e-001 -1.305564e+000 26 27 20
2.682715e-001 -4.131240e-001 -1.260251e+000 70 100 86
4.413597e-001 -3.923774e-001 -1.295578e+000 100 123 113
4.549332e-001 -3.984357e-001 -1.317145e+000 98 125 118
2.686033e-001 -1.228795e-002 -1.512906e+000 112 18 12
2.886025e-001 -5.861888e-002 -1.528220e+000 42 40 39
2.350484e-001 -9.350937e-002 -1.483789e+000 210 211 207
2.882325e-001 -9.930041e-002 -1.524437e+000 26 23 22
2.706055e-001 -1.796060e-001 -1.503519e+000 200 185 70
4.240035e-001 3.280035e-001 -1.820889e+000 153 173 162
1.142525e-001 9.317803e-002 -1.437290e+000 50 141 165
1.070347e-002 -1.835067e-002 -1.396132e+000 115 127 114
2.661999e-001 -2.746079e-001 -1.495634e+000 70 64 3
2.187326e-001 -5.785251e-002 -1.470641e+000 27 23 24
2.800301e-001 -1.005798e-001 -1.514033e+000 217 217 215
3.405553e-001 1.716233e-001 -1.826141e+000 199 234 94
6.668947e-002 1.586738e-002 -1.436232e+000 143 148 141
-2.473588e-001 3.864521e-001 -1.422756e+000 138 124 127
2.271790e-001 4.785858e-001 -1.751702e+000 160 177 168
2.025081e-001 4.577986e-001 -1.699177e+000 170 177 169
3.827403e-001 4.817953e-001 -1.756065e+000 133 140 126
5.290757e-001 5.403616e-001 -1.977993e+000 103 99 95
1.839030e-001 4.237503e-001 -1.626647e+000 155 159 157
3.988325e-001 4.644733e-001 -1.769978e+000 171 181 163
3.184415e-001 4.299887e-001 -1.745910e+000 105 116 126
3.238735e-001 4.287697e-001 -1.756692e+000 44 56 65
3.295003e-001 4.260929e-001 -1.758191e+000 62 73 79
2.358687e-002 3.439956e-001 -1.606580e+000 93 86 75
3.901660e-001 4.033397e-001 -1.798373e+000 176 200 184
-2.096655e-001 2.256678e-001 -1.370742e+000 127 120 117
4.405678e-001 3.833959e-001 -1.813335e+000 172 179 168
4.283887e-001 3.146752e-001 -1.806417e+000 146 167 150
3.039715e-001 2.698352e-001 -1.689451e+000 163 50 77
4.367866e-001 2.944709e-001 -1.814874e+000 163 182 163
3.356783e-001 2.266296e-001 -1.672279e+000 73 118 50
4.775771e-001 2.442065e-001 -1.891196e+000 136 136 131
3.396874e-001 1.983507e-001 -1.837860e+000 76 112 16
5.093982e-001 2.354434e-001 -1.899849e+000 183 178 170
4.766119e-001 2.089602e-001 -1.828882e+000 134 149 117
1.008762e-001 1.078035e-001 -1.556079e+000 193 88 124
3.303998e-001 1.683903e-001 -1.813623e+000 200 232 100
1.073983e-001 1.015623e-001 -1.558023e+000 171 79 104
3.247890e-001 1.601593e-001 -1.799197e+000 158 177 79
5.768033e-001 2.155834e-001 -1.932722e+000 203 204 196
5.689148e-001 2.058951e-001 -1.920745e+000 191 189 176
5.173232e-001 1.533036e-001 -1.925211e+000 179 170 163
5.270097e-001 1.392967e-001 -1.921415e+000 40 25 16
5.425607e-001 1.397310e-001 -1.937563e+000 164 172 156
2.069898e-001 4.369690e-002 -1.464862e+000 160 131 116
5.384910e-001 1.232542e-001 -1.939526e+000 153 146 135
2.103627e-002 -1.513498e-002 -1.407508e+000 170 178 170
1.842550e-001 1.180128e-002 -1.448849e+000 109 59 29
2.900975e-001 1.132677e-002 -1.527936e+000 102 1 1
2.604572e-001 4.315399e-003 -1.514726e+000 203 27 22
2.821273e-001 8.558164e-003 -1.525291e+000 87 10 5
2.705761e-001 6.904658e-004 -1.514340e+000 167 34 28
2.738473e-001 -3.737743e-003 -1.516836e+000 180 26 22
2.074001e-001 -2.058676e-002 -1.466676e+000 218 220 219
2.597432e-001 -1.202171e-002 -1.788523e+000 56 95 41
2.069889e-001 -2.551061e-002 -1.464672e+000 208 215 208
2.206914e-001 -2.626985e-002 -1.472001e+000 53 53 53
2.886135e-001 -8.053767e-003 -1.530270e+000 102 2 2
2.964596e-001 -1.939973e-002 -1.534590e+000 139 16 8
1.884819e-001 -5.286383e-002 -1.450462e+000 76 75 77
2.910375e-001 -2.949474e-002 -1.529420e+000 196 197 195
1.958681e-001 -5.890350e-002 -1.458867e+000 148 150 146
2.146519e-001 -6.689202e-002 -1.466629e+000 11 15 14
2.500068e-001 -6.401109e-002 -1.485878e+000 67 71 70
2.855403e-001 -5.980976e-002 -1.523664e+000 181 181 180
2.557287e-001 -6.978349e-002 -1.497339e+000 209 209 209
2.431919e-001 -7.365499e-002 -1.490492e+000 216 219 216
2.896586e-001 -7.002415e-002 -1.525684e+000 144 149 148
2.476636e-001 -8.560307e-002 -1.490838e+000 209 209 206
2.885472e-001 -7.624270e-002 -1.523793e+000 81 87 84
2.265815e-001 -9.418963e-002 -1.472256e+000 176 181 175
2.961818e-001 -9.762077e-002 -1.529356e+000 216 220 221
2.302127e-001 -1.174370e-001 -1.477252e+000 141 140 141
2.420959e-001 -1.153717e-001 -1.481344e+000 205 206 208
2.549337e-001 -1.111641e-001 -1.494164e+000 151 151 150
6.427732e-001 -6.730616e-002 -1.987572e+000 103 111 105
4.575395e-002 -2.076776e-001 -1.408417e+000 31 59 33
-4.943085e-002 -2.400864e-001 -1.354637e+000 182 128 121
3.093634e-001 -1.460126e-001 -1.537558e+000 61 43 38
2.728110e-001 -1.602766e-001 -1.517316e+000 139 111 109
3.089268e-001 -1.537350e-001 -1.530940e+000 100 57 58
2.334766e-001 -1.741991e-001 -1.474643e+000 73 69 71
2.324213e-001 -1.781648e-001 -1.475451e+000 96 76 81
2.227330e-001 -2.747019e-001 -1.462629e+000 146 109 6
2.290125e-001 -2.737214e-001 -1.439279e+000 212 196 95
2.636929e-001 -2.725325e-001 -1.471155e+000 141 107 34
3.799170e-001 -2.541516e-001 -1.480632e+000 190 201 132
2.208523e-001 -3.210442e-001 -1.392419e+000 30 28 19
2.023254e-001 -3.508339e-001 -1.355123e+000 100 120 112
3.707805e-001 -2.930387e-001 -1.394137e+000 65 92 86
3.675095e-001 -3.086488e-001 -1.432933e+000 85 93 98
3.272261e-001 -3.408125e-001 -1.396188e+000 117 132 127
3.513413e-001 -3.387636e-001 -1.386715e+000 106 112 100
4.578576e-001 3.298000e-001 -1.809605e+000 111 113 96
3.634701e-001 1.504246e-001 -1.834046e+000 208 241 107
2.891441e-001 -3.043583e-003 -1.526154e+000 103 0 0
2.988712e-001 -2.197962e-002 -1.532228e+000 84 11 7
2.797339e-001 -3.538220e-002 -1.518580e+000 221 225 223
2.134882e-001 -5.581612e-002 -1.465317e+000 214 219 216
2.438491e-001 -5.775055e-002 -1.489836e+000 12 16 16
2.937704e-001 -5.198923e-002 -1.532398e+000 219 220 219
2.650707e-001 -6.405471e-002 -1.509014e+000 210 216 212
2.854906e-001 -7.290317e-002 -1.522221e+000 27 29 27
1.911423e-001 -1.204680e-001 -1.448802e+000 208 203 196
3.450078e-002 -2.416480e-001 -1.401684e+000 84 149 113
6.243880e-002 -3.028220e-001 -1.411673e+000 51 93 62
1.919824e-001 -3.488701e-001 -1.366515e+000 90 106 99
3.109056e-001 -3.359503e-001 -1.403024e+000 42 51 53
1.286213e-001 -3.918151e-001 -1.278964e+000 17 25 24
9.930549e-002 -4.083366e-001 -1.231989e+000 112 112 107
2.225036e-001 4.554038e-001 -1.643368e+000 175 184 180
3.593009e-001 4.967810e-001 -1.762052e+000 149 165 157
7.476698e-003 3.950445e-001 -1.611617e+000 146 139 131
4.133388e-001 3.311104e-001 -1.797911e+000 140 160 134
