ply
format ascii 1.0
element face 0
property list uchar int vertex_indices
element vertex 748
property float x
property float y
property float z
property uchar diffuse_red
property uchar diffuse_green
property uchar diffuse_blue
end_header
2.830331e-001 5.079879e-001 -1.732642e+000 155 158 149
3.596338e-002 4.660899e-001 -1.609316e+000 144 144 134
-1.150859e-003 4.293396e-001 -1.576996e+000 154 150 139
4.152687e-001 4.449091e-001 -1.777774e+000 173 180 164
-2.193235e-001 3.152063e-001 -1.407873e+000 47 32 32
-1.861949e-001 3.108372e-001 -1.396409e+000 125 121 117
2.333983e-001 3.758155e-001 -1.652772e+000 153 172 183
-3.502535e-002 3.283148e-001 -1.547203e+000 151 143 141
6.762851e-003 3.249106e-001 -1.560853e+000 141 141 137
-2.092461e-001 2.598723e-001 -1.376200e+000 144 139 136
-2.238118e-001 2.225684e-001 -1.371175e+000 156 142 137
4.414368e-001 3.301763e-001 -1.802613e+000 186 192 190
4.580020e-001 3.257852e-001 -1.808054e+000 98 95 87
-2.233683e-001 2.025620e-001 -1.373546e+000 104 86 81
4.498956e-001 2.861339e-001 -1.804405e+000 161 177 161
1.317543e-002 5.944865e-002 -1.462796e+000 182 96 119
1.086318e-001 5.459799e-002 -1.502221e+000 145 149 137
-6.534890e-002 7.228414e-003 -1.370632e+000 11 65 76
4.961352e-002 2.387277e-002 -1.440152e+000 185 194 184
2.322471e-002 5.451258e-003 -1.411139e+000 112 124 114
-7.533417e-002 -1.238385e-002 -1.368304e+000 117 42 58
2.036663e-001 1.912568e-002 -1.467256e+000 135 68 29
2.124526e-001 1.484888e-002 -1.466841e+000 164 129 100
4.073470e-002 -7.886011e-003 -1.423110e+000 152 168 157
1.046154e-002 -2.069565e-002 -1.400076e+000 171 185 171
1.674889e-001 -4.383096e-003 -1.431315e+000 221 196 178
2.696500e-001 3.836391e-003 -1.515000e+000 119 1 1
2.544366e-001 -6.707527e-004 -1.500426e+000 96 13 12
2.340750e-001 -7.911549e-003 -1.482455e+000 38 39 37
2.463103e-001 -5.278179e-003 -1.489991e+000 132 123 122
2.335480e-001 -1.656867e-002 -1.478929e+000 219 223 220
2.406130e-001 -1.932296e-002 -1.494991e+000 211 216 212
2.703396e-001 -1.493545e-002 -1.509287e+000 116 7 5
2.591380e-001 -1.963386e-002 -1.502715e+000 119 5 3
2.343340e-001 -2.702757e-002 -1.494063e+000 32 30 32
2.069562e-001 -3.457401e-002 -1.458900e+000 18 15 12
2.792389e-001 -3.430582e-002 -1.516093e+000 215 214 210
2.615609e-001 -4.747812e-002 -1.501024e+000 90 93 92
2.368144e-001 -8.845838e-002 -1.478977e+000 199 201 198
2.221838e-001 -9.275707e-002 -1.466184e+000 190 192 187
2.302282e-001 -9.874202e-002 -1.478026e+000 64 64 62
2.790911e-001 -9.371603e-002 -1.515449e+000 33 32 32
2.186583e-001 -1.016825e-001 -1.465197e+000 16 18 15
2.568132e-001 -9.506842e-002 -1.497622e+000 146 144 143
2.464623e-001 -1.052658e-001 -1.488028e+000 18 21 18
2.201032e-001 -1.132115e-001 -1.466849e+000 93 92 90
2.301011e-001 -1.179375e-001 -1.469090e+000 160 156 154
-4.013809e-002 -1.559014e-001 -1.385788e+000 134 137 135
-7.907941e-002 -1.647189e-001 -1.350520e+000 127 186 192
2.774124e-001 -1.561138e-001 -1.500954e+000 123 93 91
2.904868e-001 -1.542978e-001 -1.520012e+000 161 129 121
2.827576e-001 -1.621609e-001 -1.514330e+000 172 124 122
2.618605e-001 -1.638477e-001 -1.493960e+000 160 119 113
2.275244e-001 -1.763433e-001 -1.469401e+000 118 99 98
2.204334e-001 -1.883295e-001 -1.465128e+000 34 17 0
6.193967e-002 -2.261477e-001 -1.421404e+000 27 51 33
4.215724e-002 -2.412407e-001 -1.404423e+000 18 73 30
9.675421e-002 -2.491375e-001 -1.450573e+000 39 42 32
8.872916e-002 -2.528964e-001 -1.441541e+000 64 93 57
7.975844e-002 -2.612843e-001 -1.433993e+000 86 117 92
9.565758e-002 -2.700971e-001 -1.453852e+000 94 120 99
4.037827e-001 -2.693599e-001 -1.480118e+000 120 118 17
4.724669e-001 -2.708983e-001 -1.504379e+000 37 57 0
5.020196e-001 -2.724536e-001 -1.502985e+000 56 134 48
-4.724694e-002 -3.906815e-001 -1.401516e+000 126 134 138
-7.634640e-002 -4.298935e-001 -1.418846e+000 82 69 71
4.131832e-002 -3.411506e-002 -1.424744e+000 85 170 120
2.328588e-001 -3.446320e-002 -1.483262e+000 220 221 215
2.429923e-001 -5.372746e-002 -1.486513e+000 56 61 58
2.309342e-001 -6.974996e-002 -1.482009e+000 201 204 198
2.187003e-001 -8.078314e-002 -1.466091e+000 222 220 217
2.451790e-001 -1.144704e-001 -1.483627e+000 211 210 207
5.005859e-002 -2.298082e-001 -1.410370e+000 30 57 36
1.010913e-001 -2.904100e-001 -1.456207e+000 62 140 99
3.769357e-003 4.206074e-001 -1.580783e+000 127 118 111
-1.351163e-001 2.653161e-001 -1.388759e+000 223 228 231
3.336267e-002 3.116073e-001 -1.613120e+000 127 112 97
-5.941782e-002 6.950417e-002 -1.390338e+000 54 135 164
2.296336e-001 -9.629107e-003 -1.481630e+000 38 34 31
1.818831e-002 -6.424920e-002 -1.398322e+000 55 104 75
2.198915e-001 -1.184402e-001 -1.457104e+000 213 212 211
2.702587e-001 -1.626757e-001 -1.500517e+000 178 131 127
1.749619e-001 -8.139953e-003 -1.434192e+000 209 211 208
3.653649e-002 -4.359277e-002 -1.423740e+000 94 183 129
-5.392093e-002 -1.051981e-001 -1.373135e+000 184 170 132
1.914019e-001 -1.041543e-001 -1.446424e+000 208 204 198
2.265762e-001 -1.795525e-001 -1.465112e+000 60 39 25
1.000072e-001 -2.835152e-001 -1.444857e+000 63 138 93
-1.499690e-001 2.020616e-001 -1.405148e+000 66 44 30
9.829765e-002 8.416168e-002 -1.522787e+000 215 225 235
-6.291594e-002 -1.081824e-002 -1.369209e+000 16 15 17
2.460964e-002 2.068106e-003 -1.396894e+000 68 83 77
3.667217e-002 -9.428493e-002 -1.420810e+000 90 177 118
3.926356e-001 4.259930e-001 -1.811428e+000 172 178 170
-1.431905e-001 2.437505e-001 -1.397206e+000 57 53 50
2.734512e-001 3.338719e-001 -1.623816e+000 86 121 68
3.623076e-002 1.057868e-002 -1.425204e+000 176 187 173
2.962393e-001 -5.604182e-002 -1.530249e+000 204 198 197
2.825935e-001 -6.223434e-002 -1.516301e+000 161 158 158
2.999200e-001 -6.918301e-002 -1.533898e+000 201 199 194
2.350715e-001 -1.136498e-001 -1.479754e+000 53 51 47
9.499301e-002 -2.689258e-001 -1.446500e+000 109 136 115
2.104476e-001 -1.004223e-001 -1.454293e+000 194 194 190
2.174793e-001 -1.220045e-001 -1.462878e+000 209 210 205
5.301156e-001 -1.338654e-001 -1.714468e+000 34 66 7
6.034434e-001 -2.135974e-001 -1.656485e+000 121 118 117
-2.434559e-002 4.095290e-001 -1.568409e+000 139 132 128
8.171390e-003 4.115794e-001 -1.589111e+000 126 122 113
6.390803e-002 -2.142515e-001 -1.433910e+000 31 32 26
5.839654e-002 -2.420818e-002 -1.442470e+000 12 11 9
1.852776e-001 -2.290797e-002 -1.443556e+000 97 93 92
2.892812e-001 -7.552326e-002 -1.530866e+000 55 59 53
2.786343e-001 -1.050886e-001 -1.520852e+000 208 207 205
2.526919e-001 1.443884e-003 -1.500201e+000 189 163 160
-2.276080e-001 3.852715e-001 -1.424963e+000 161 151 149
-1.735290e-002 3.697872e-001 -1.556312e+000 78 71 58
-2.120629e-001 3.300606e-001 -1.405656e+000 150 140 139
-2.221038e-001 2.586095e-001 -1.376875e+000 138 123 123
1.060447e-001 1.019239e-001 -1.559703e+000 175 82 113
-5.178427e-002 4.687024e-002 -1.395241e+000 17 114 146
-9.413078e-003 4.091526e-002 -1.438070e+000 208 115 146
1.893083e-001 1.572640e-002 -1.438581e+000 138 74 40
-6.251910e-002 1.363211e-002 -1.367238e+000 118 185 195
-4.510526e-002 9.588178e-003 -1.370084e+000 24 28 21
1.918487e-001 -2.236713e-002 -1.444428e+000 57 57 56
2.908489e-001 -3.144970e-002 -1.528022e+000 213 212 207
2.116804e-001 -8.264077e-002 -1.462634e+000 49 50 45
4.882690e-001 -1.424499e-001 -1.732122e+000 72 105 56
2.266464e-001 -1.220823e-001 -1.470144e+000 207 200 200
5.323883e-001 -1.425795e-001 -1.707215e+000 87 145 68
2.780174e-001 -2.639033e-001 -1.454206e+000 165 174 94
2.374427e-001 -3.341156e-001 -1.389973e+000 30 48 45
2.078210e-001 -3.433141e-001 -1.368240e+000 60 61 61
1.170799e-001 -3.638735e-001 -1.327185e+000 112 129 122
1.668197e-002 6.258329e-002 -1.465771e+000 183 73 107
1.557099e-003 3.856327e-003 -1.384185e+000 209 216 211
5.982483e-002 -2.736181e-001 -1.415306e+000 45 67 41
2.817140e-001 -2.867471e-001 -1.444469e+000 170 149 15
2.013967e-001 -3.429102e-001 -1.359489e+000 33 38 34
2.240540e-001 4.747247e-001 -1.724098e+000 193 211 211
2.182493e-001 4.046027e-001 -1.668292e+000 189 219 233
-2.930440e-002 4.277195e-002 -1.416567e+000 188 85 115
7.926529e-002 -2.526481e-001 -1.431324e+000 53 103 61
8.247349e-002 -2.792009e-001 -1.437410e+000 33 59 38
1.898471e-001 -2.383182e-002 -1.442593e+000 15 14 12
2.752664e-001 -8.502889e-002 -1.529162e+000 216 217 212
3.686538e-001 4.877782e-001 -1.739044e+000 173 183 164
3.862641e-001 4.678238e-001 -1.757138e+000 178 190 174
-2.853389e-002 4.094006e-001 -1.569285e+000 124 121 116
3.181606e-001 4.381782e-001 -1.736706e+000 167 177 191
2.412791e-001 3.963302e-001 -1.657645e+000 35 61 62
-2.946229e-002 3.602539e-001 -1.553759e+000 138 134 132
1.810890e-002 2.860590e-001 -1.550823e+000 175 182 166
4.657946e-001 3.250327e-001 -1.800085e+000 147 150 136
4.900067e-001 1.941004e-001 -1.831490e+000 148 161 135
-6.516555e-002 1.633142e-001 -1.618740e+000 196 115 128
-1.258151e-001 1.527572e-001 -1.700168e+000 190 111 116
-1.229111e-001 1.033076e-001 -1.330979e+000 85 165 177
2.353140e-001 1.043970e-001 -1.595828e+000 71 99 47
5.438818e-002 6.518334e-002 -1.356531e+000 174 94 125
-5.443387e-002 6.917557e-002 -1.396077e+000 66 145 169
2.620740e-001 6.611846e-002 -1.534639e+000 139 109 105
1.364353e-001 5.782469e-002 -1.528955e+000 205 217 207
1.209410e-001 5.296507e-002 -1.518456e+000 178 187 172
1.202423e-001 4.337255e-002 -1.496610e+000 100 110 99
2.060691e-001 4.343598e-002 -1.464643e+000 170 142 131
1.137339e-001 3.889602e-002 -1.487750e+000 117 123 106
8.548813e-002 3.311014e-002 -1.454659e+000 177 190 180
9.964251e-002 3.403917e-002 -1.470891e+000 60 72 59
6.145626e-002 2.961481e-002 -1.454660e+000 192 201 190
1.994634e-001 2.852754e-002 -1.464780e+000 143 81 41
8.580775e-002 2.775885e-002 -1.472265e+000 63 76 59
1.872833e-001 2.442288e-002 -1.447006e+000 126 60 25
6.711175e-002 2.298340e-002 -1.457534e+000 68 79 70
5.731073e-002 1.709593e-002 -1.440400e+000 53 70 60
3.748862e-002 1.053373e-002 -1.426563e+000 110 121 109
5.806059e-002 9.196589e-003 -1.439817e+000 142 164 155
6.690174e-003 4.042933e-003 -1.394323e+000 167 175 167
3.811625e-002 7.383184e-003 -1.426850e+000 145 158 149
5.545174e-002 2.046243e-003 -1.440582e+000 60 75 65
3.800795e-002 -1.010138e-003 -1.424769e+000 61 75 65
1.983635e-001 -1.909067e-002 -1.455495e+000 221 218 219
1.903912e-001 -2.738799e-002 -1.449341e+000 213 209 210
4.304711e-002 -3.020105e-002 -1.430401e+000 82 146 108
2.118754e-001 -2.747423e-002 -1.462143e+000 220 216 215
1.891716e-001 -4.109563e-002 -1.446048e+000 62 54 54
2.483016e-001 -4.397905e-002 -1.492306e+000 222 222 221
2.148404e-001 -5.476081e-002 -1.466362e+000 208 208 203
2.010383e-001 -5.891639e-002 -1.455173e+000 206 209 207
2.353968e-001 -6.398795e-002 -1.480486e+000 146 144 142
2.724445e-001 -7.824832e-002 -1.503437e+000 212 217 210
2.780533e-001 -8.514008e-002 -1.514714e+000 35 35 33
7.075351e-001 -1.185560e-001 -2.013751e+000 170 165 172
2.173144e-001 -9.228723e-002 -1.457541e+000 197 201 194
2.099494e-001 -1.141930e-001 -1.459871e+000 207 207 205
2.018133e-001 -1.246597e-001 -1.456223e+000 140 68 60
2.047034e-001 -1.310923e-001 -1.454732e+000 114 87 19
3.182503e-001 -1.463583e-001 -1.543846e+000 162 119 115
3.264061e-001 -1.544765e-001 -1.550615e+000 99 10 3
6.195179e-001 -1.788315e-001 -1.640333e+000 73 119 60
2.625382e-001 -1.678665e-001 -1.498495e+000 160 113 113
2.507850e-001 -1.680405e-001 -1.483229e+000 165 123 119
6.001986e-001 -2.235874e-001 -1.662250e+000 50 47 48
5.341506e-002 -2.144218e-001 -1.417348e+000 86 126 96
3.534485e-001 -2.392975e-001 -1.562480e+000 224 192 98
4.651959e-001 -2.445851e-001 -1.511487e+000 64 89 13
4.730925e-001 -2.500300e-001 -1.514293e+000 21 47 2
4.787565e-001 -2.450150e-001 -1.497972e+000 64 108 47
4.272297e-001 -2.539940e-001 -1.559032e+000 33 36 9
4.163059e-002 -2.340201e-001 -1.403762e+000 54 95 53
4.936478e-001 -2.696602e-001 -1.503796e+000 96 188 99
5.057546e-001 -2.727531e-001 -1.499398e+000 77 164 78
5.505259e-001 -2.785093e-001 -1.482430e+000 91 191 103
4.768857e-001 -2.894691e-001 -1.523007e+000 43 44 34
4.895255e-001 -2.856604e-001 -1.487254e+000 133 128 100
5.221801e-001 -2.940717e-001 -1.496422e+000 48 59 59
5.207583e-001 -2.909416e-001 -1.472067e+000 57 70 74
5.606078e-001 -3.308163e-001 -1.441939e+000 72 82 94
1.579621e-001 -3.192917e-001 -1.372792e+000 176 208 211
5.486195e-001 -3.340891e-001 -1.414485e+000 98 112 110
1.343935e-001 -3.267378e-001 -1.374737e+000 32 47 45
3.066092e-001 -3.308262e-001 -1.390142e+000 104 120 123
1.588101e-001 -3.245039e-001 -1.358577e+000 115 148 202
2.127736e-001 -3.271956e-001 -1.371855e+000 51 52 58
2.016866e-001 -3.287272e-001 -1.368060e+000 64 69 83
1.765058e-001 -3.325055e-001 -1.366647e+000 91 92 100
1.643331e-001 -3.338105e-001 -1.364130e+000 103 102 102
2.245175e-001 -3.376465e-001 -1.371694e+000 79 84 87
3.254778e-001 -3.491968e-001 -1.378022e+000 123 163 144
2.058059e-001 -3.484738e-001 -1.367616e+000 16 15 11
2.886992e-001 -3.566418e-001 -1.379182e+000 185 197 198
1.808769e-001 -3.532587e-001 -1.352740e+000 16 23 18
1.381531e-001 -3.571407e-001 -1.343851e+000 109 126 120
-5.900039e-002 -3.880906e-001 -1.413363e+000 128 125 130
-4.710602e-002 -3.958631e-001 -1.418578e+000 129 128 136
4.775849e-001 -3.814831e-001 -1.329211e+000 11 20 9
4.332693e-001 -3.802882e-001 -1.310168e+000 26 26 26
-7.530884e-002 -4.082882e-001 -1.412771e+000 89 85 83
4.574325e-001 -3.911376e-001 -1.318512e+000 77 80 69
4.527469e-001 -3.885342e-001 -1.318838e+000 54 53 48
-6.656475e-002 -4.166617e-001 -1.415511e+000 117 113 117
1.624507e-001 -3.886152e-001 -1.289898e+000 26 42 31
3.888072e-001 -3.954070e-001 -1.299076e+000 88 83 77
3.674397e-001 -3.973915e-001 -1.292370e+000 88 85 80
3.238893e-001 -4.028799e-001 -1.283509e+000 82 76 70
3.024320e-001 -4.041492e-001 -1.273987e+000 84 81 73
3.247965e-001 -4.077145e-001 -1.279725e+000 119 151 140
1.885776e-001 -4.053640e-001 -1.266006e+000 132 155 141
2.679787e-001 -4.142941e-001 -1.284405e+000 31 39 30
-2.252757e-001 2.202500e-001 -1.373162e+000 149 134 130
8.135165e-002 2.644018e-002 -1.446334e+000 53 67 50
3.664089e-002 -9.517296e-003 -1.431352e+000 126 140 128
2.481418e-001 -1.131370e-002 -1.491066e+000 47 17 18
2.078982e-001 -1.468256e-002 -1.460384e+000 39 33 31
2.468522e-001 -1.812545e-002 -1.494578e+000 73 35 35
1.763652e-002 -6.347298e-002 -1.401102e+000 56 105 76
2.051612e-001 -8.123848e-002 -1.456136e+000 207 208 206
-5.938696e-002 -9.124453e-002 -1.374681e+000 206 180 149
2.359670e-001 -1.163254e-001 -1.476733e+000 29 24 21
1.924744e-001 -1.174831e-001 -1.454122e+000 213 204 196
2.862543e-001 -1.624383e-001 -1.557500e+000 189 146 141
3.509280e-001 -2.327850e-001 -1.571182e+000 196 63 18
8.702459e-002 -2.539522e-001 -1.441491e+000 104 139 98
1.919849e-001 -3.442135e-001 -1.365030e+000 108 102 84
2.330515e-001 3.935284e-001 -1.669917e+000 31 39 43
4.254510e-002 3.030388e-001 -1.626031e+000 208 238 191
3.520467e-001 2.811831e-001 -1.727077e+000 227 111 174
2.916838e-001 2.627686e-001 -1.666052e+000 103 0 0
3.210655e-001 2.654398e-001 -1.678595e+000 216 95 157
-1.613298e-001 1.856174e-001 -1.384638e+000 196 211 172
1.730723e-001 1.289253e-001 -1.611698e+000 22 55 32
2.776025e-001 6.818311e-002 -1.512630e+000 226 192 183
8.402313e-002 2.797171e-002 -1.432805e+000 48 62 48
1.070676e-001 1.166823e-002 -1.418581e+000 47 36 29
5.871037e-002 6.970068e-003 -1.433351e+000 140 159 148
3.571806e-002 -7.542829e-003 -1.417881e+000 136 150 139
2.470732e-001 -1.555875e-002 -1.490497e+000 58 12 12
2.034985e-001 -4.132040e-002 -1.453338e+000 215 219 218
2.450648e-001 -9.648231e-002 -1.487726e+000 34 35 33
5.187411e-001 -1.270602e-001 -1.726142e+000 106 158 78
2.053422e-001 -1.345398e-001 -1.452955e+000 103 81 28
2.328091e-001 -1.749470e-001 -1.471161e+000 124 88 86
-8.264230e-002 -1.623197e-001 -1.357795e+000 127 168 169
2.733133e-001 -1.805574e-001 -1.513148e+000 202 159 65
3.660774e-001 -2.250884e-001 -1.570035e+000 49 20 11
4.663168e-001 -2.595585e-001 -1.510348e+000 236 239 89
4.821400e-001 -2.753639e-001 -1.523163e+000 19 38 4
5.045839e-001 -2.714247e-001 -1.490908e+000 77 164 80
5.428085e-001 -2.840819e-001 -1.520204e+000 103 197 109
4.994345e-001 -3.007533e-001 -1.476265e+000 87 138 123
2.060138e-001 -3.208647e-001 -1.410625e+000 133 156 204
3.135647e-002 3.527968e-001 -1.593567e+000 117 107 100
-1.322605e-002 3.252004e-001 -1.552033e+000 229 237 240
-1.395793e-001 1.970436e-001 -1.403318e+000 73 59 34
-1.197806e-001 1.965637e-001 -1.402716e+000 223 237 235
1.708911e-001 1.397459e-001 -1.620119e+000 28 65 36
2.701276e-001 5.741867e-002 -1.533037e+000 217 221 214
7.950295e-003 -1.168262e-002 -1.392804e+000 154 174 163
2.397331e-001 -5.543066e-002 -1.458182e+000 110 115 111
2.368144e-001 -8.890612e-002 -1.467410e+000 57 54 50
-6.718955e-002 -2.149484e-001 -1.364594e+000 201 175 156
5.560401e-001 -3.155855e-001 -1.452332e+000 100 120 138
-1.145799e-001 2.031917e-001 -1.402464e+000 227 235 237
-1.547557e-001 1.087211e-001 -1.314308e+000 204 212 178
9.384779e-002 2.283396e-002 -1.458272e+000 200 188 155
2.094342e-001 -1.934347e-002 -1.484257e+000 85 83 78
2.688158e-001 -1.837125e-001 -1.500985e+000 217 193 49
6.773330e-002 -2.455955e-001 -1.422509e+000 90 165 106
-1.126799e-001 2.099586e-001 -1.408640e+000 227 234 238
5.562445e-002 -1.751264e-001 -1.429597e+000 100 163 101
3.344347e-001 5.185676e-001 -1.719154e+000 158 175 167
-2.511294e-001 3.886860e-001 -1.432820e+000 130 115 117
-1.958943e-002 4.308842e-001 -1.573873e+000 120 122 118
-1.952000e-002 4.254139e-001 -1.571418e+000 116 111 110
-2.776402e-002 4.190718e-001 -1.567354e+000 139 140 135
-2.183075e-001 3.571304e-001 -1.419352e+000 126 117 118
-2.258171e-001 3.443598e-001 -1.408397e+000 131 117 121
2.728243e-001 4.330980e-001 -1.730947e+000 87 95 82
3.238329e-001 4.384011e-001 -1.754080e+000 200 219 231
-2.106241e-001 3.380045e-001 -1.411690e+000 117 106 107
3.270141e-001 4.360578e-001 -1.739483e+000 62 88 93
2.353978e-001 4.156068e-001 -1.683539e+000 180 196 206
3.189598e-001 4.337765e-001 -1.724877e+000 59 83 88
-2.260252e-001 3.245093e-001 -1.411712e+000 90 72 73
-2.340205e-001 3.082889e-001 -1.410060e+000 92 68 62
3.790845e-001 4.156033e-001 -1.791429e+000 191 214 205
3.828274e-001 4.058888e-001 -1.779527e+000 195 222 214
5.590574e-001 4.308412e-001 -1.922158e+000 53 44 56
-2.119185e-001 2.949699e-001 -1.394827e+000 158 152 152
4.020265e-001 3.830465e-001 -1.793445e+000 189 207 191
2.810426e-002 3.070846e-001 -1.623451e+000 96 95 89
4.090372e-001 3.802615e-001 -1.797226e+000 159 176 158
6.045998e-002 3.062408e-001 -1.635588e+000 150 140 130
4.055234e-001 3.699263e-001 -1.800725e+000 198 216 208
3.760973e-001 3.326134e-001 -1.911652e+000 166 194 172
4.209070e-001 3.520534e-001 -1.802918e+000 121 136 111
-2.373023e-001 2.313105e-001 -1.398058e+000 138 127 131
4.300902e-001 3.516821e-001 -1.796111e+000 182 199 187
4.206817e-001 3.327936e-001 -1.813563e+000 184 200 183
4.918098e-001 3.362990e-001 -1.804763e+000 194 205 200
4.279020e-001 3.103443e-001 -1.809767e+000 182 202 191
5.834216e-001 3.239545e-001 -1.981932e+000 87 86 84
4.773704e-001 3.161442e-001 -1.798508e+000 175 186 180
-2.480535e-001 1.810016e-001 -1.372565e+000 117 98 90
5.922728e-001 3.075710e-001 -1.980924e+000 90 93 86
4.399067e-001 2.932645e-001 -1.807530e+000 164 185 170
5.928824e-001 3.011766e-001 -1.989569e+000 44 46 40
4.537114e-001 2.697258e-001 -1.802776e+000 151 167 143
3.532860e-001 2.621259e-001 -1.681085e+000 252 143 218
4.768304e-001 2.776492e-001 -1.791537e+000 197 217 211
3.841051e-001 2.257860e-001 -1.857907e+000 150 185 88
4.670052e-001 2.593738e-001 -1.794883e+000 116 129 109
4.740152e-001 2.577043e-001 -1.796478e+000 177 194 188
3.745088e-001 2.028640e-001 -1.863210e+000 74 138 59
4.836515e-001 2.178404e-001 -1.823216e+000 120 130 105
5.600173e-001 2.174247e-001 -1.911969e+000 207 210 208
5.565443e-001 2.050002e-001 -1.916944e+000 119 87 71
4.891338e-001 1.951262e-001 -1.829188e+000 159 174 151
3.671202e-001 1.481911e-001 -1.832144e+000 194 230 106
-1.012086e-001 1.117132e-001 -1.353827e+000 181 106 109
3.622308e-001 1.445010e-001 -1.825018e+000 62 108 16
-1.512932e-001 9.651348e-002 -1.312067e+000 181 149 125
5.512409e-001 1.514140e-001 -1.932215e+000 177 185 176
4.648046e-001 1.410606e-001 -1.842482e+000 60 116 51
5.141976e-001 1.337638e-001 -1.923968e+000 86 80 67
5.222005e-001 1.355542e-001 -1.925908e+000 123 108 92
5.302354e-001 1.303924e-001 -1.930582e+000 126 115 105
6.417318e-001 1.443891e-001 -2.014689e+000 141 138 145
6.439622e-001 1.345955e-001 -2.015336e+000 112 106 113
1.789515e-001 9.602486e-002 -1.587053e+000 112 148 126
-6.643453e-002 6.994537e-002 -1.382182e+000 36 129 157
-5.219447e-002 6.885107e-002 -1.382125e+000 44 136 161
1.976411e-001 7.518136e-002 -1.584950e+000 185 185 159
1.332271e-001 5.119072e-002 -1.527826e+000 47 57 43
6.477883e-002 3.015076e-002 -1.450422e+000 140 152 137
2.887967e-001 7.165576e-002 -1.530414e+000 182 168 148
1.452331e-002 1.171941e-002 -1.401383e+000 154 165 153
-2.160945e-002 7.227457e-003 -1.359377e+000 87 104 86
1.135585e-002 5.621782e-003 -1.391675e+000 128 142 133
3.621509e-001 8.554315e-002 -1.514789e+000 138 204 114
4.432603e-001 9.804902e-002 -1.538195e+000 63 127 44
2.829175e-002 -1.306509e-002 -1.418342e+000 84 99 91
4.154602e-001 7.963343e-002 -1.521229e+000 84 157 59
2.665607e-001 3.093999e-003 -1.508530e+000 127 9 1
2.508415e-001 -1.569754e-003 -1.492117e+000 188 181 181
2.094907e-001 -1.339252e-002 -1.457192e+000 69 69 71
2.176471e-001 -1.432965e-002 -1.467735e+000 156 156 152
2.581582e-001 -1.140908e-002 -1.500837e+000 229 44 38
2.767412e-001 -1.185161e-002 -1.510407e+000 153 13 11
2.094023e-001 -1.643125e-002 -1.445395e+000 17 15 16
2.322220e-001 -1.937656e-002 -1.468277e+000 34 33 33
2.492743e-001 -2.023763e-002 -1.492455e+000 77 14 10
2.537562e-001 -2.082953e-002 -1.496953e+000 158 49 47
2.112426e-001 -2.437010e-002 -1.460045e+000 209 212 209
2.306087e-001 -2.710845e-002 -1.478335e+000 22 23 23
2.313021e-001 -2.872445e-002 -1.484429e+000 49 48 50
2.201650e-001 -3.152306e-002 -1.467763e+000 20 20 21
2.376737e-001 -2.994398e-002 -1.485914e+000 94 87 80
6.499249e-001 -5.847076e-002 -1.952015e+000 183 192 189
2.660844e-001 -3.793657e-002 -1.502039e+000 183 184 181
2.347039e-001 -4.691206e-002 -1.474055e+000 173 176 167
6.674141e-001 -7.252131e-002 -1.965662e+000 126 133 137
2.771302e-001 -5.376324e-002 -1.519958e+000 88 87 88
2.071818e-001 -5.762849e-002 -1.456278e+000 43 48 42
2.748020e-001 -5.430605e-002 -1.511809e+000 24 21 23
6.743856e-001 -7.777789e-002 -1.960110e+000 168 169 167
2.570106e-001 -6.009668e-002 -1.496703e+000 95 96 91
2.139118e-001 -6.843361e-002 -1.468076e+000 25 23 24
2.348255e-001 -6.428912e-002 -1.480718e+000 125 125 121
6.821431e-001 -8.465453e-002 -1.970486e+000 98 103 103
2.673669e-001 -6.553216e-002 -1.511971e+000 211 212 209
6.758368e-001 -1.016172e-001 -1.980116e+000 104 90 79
2.421963e-001 -7.447331e-002 -1.489489e+000 219 217 215
2.820091e-001 -7.384714e-002 -1.510356e+000 109 116 109
2.698484e-001 -7.767221e-002 -1.503856e+000 183 190 182
2.602499e-001 -8.033533e-002 -1.495442e+000 199 203 201
3.009772e-001 -8.337719e-002 -1.539173e+000 163 164 164
2.458778e-001 -8.916283e-002 -1.521494e+000 220 222 217
2.781531e-001 -8.733130e-002 -1.512823e+000 44 41 41
3.018594e-001 -8.799834e-002 -1.532102e+000 93 94 92
2.907590e-001 -9.564406e-002 -1.526950e+000 78 84 80
3.062201e-001 -9.318589e-002 -1.533514e+000 196 199 194
2.869032e-001 -9.985229e-002 -1.519630e+000 180 179 177
2.458607e-001 -1.027671e-001 -1.484774e+000 25 24 20
2.650098e-001 -1.068883e-001 -1.497346e+000 216 218 217
2.758746e-001 -1.048101e-001 -1.509915e+000 202 198 200
2.577050e-001 -1.107693e-001 -1.480309e+000 138 136 136
1.952737e-001 -1.228193e-001 -1.442299e+000 200 182 170
2.093786e-001 -1.119007e-001 -1.430650e+000 177 158 52
5.016760e-001 -1.439907e-001 -1.725888e+000 69 113 50
-6.138860e-002 -2.056626e-001 -1.352034e+000 197 169 149
3.178420e-001 -1.471039e-001 -1.542724e+000 164 130 126
3.043397e-001 -1.489931e-001 -1.525950e+000 123 96 92
3.075866e-001 -1.486572e-001 -1.532372e+000 137 113 110
3.270660e-001 -1.549986e-001 -1.547227e+000 113 12 3
5.275499e-002 -2.114546e-001 -1.415200e+000 77 114 88
2.507065e-001 -1.668852e-001 -1.486830e+000 143 116 107
2.793411e-001 -1.624333e-001 -1.503118e+000 169 129 128
4.466647e-002 -2.183553e-001 -1.404381e+000 23 70 33
5.772801e-002 -2.188746e-001 -1.414004e+000 86 128 98
2.724377e-001 -1.779753e-001 -1.500587e+000 160 120 36
6.586211e-001 -1.400893e-001 -1.625851e+000 52 125 58
3.565169e-001 -2.344573e-001 -1.567534e+000 210 53 40
6.447696e-001 -1.485266e-001 -1.632429e+000 91 172 98
3.608062e-001 -2.356655e-001 -1.570329e+000 213 119 107
6.209196e-001 -1.633291e-001 -1.630263e+000 82 165 92
6.310065e-001 -1.545874e-001 -1.622875e+000 95 193 110
1.049588e-001 -2.889891e-001 -1.451815e+000 63 129 87
-1.728166e-002 -3.183375e-001 -1.397372e+000 112 148 165
3.529063e-002 -2.952010e-001 -1.390507e+000 40 40 37
6.068399e-001 -2.154279e-001 -1.665012e+000 117 130 120
4.585694e-001 -2.193202e-001 -1.536963e+000 93 120 63
2.162169e-001 -2.900249e-001 -1.445023e+000 210 215 115
7.974690e-001 -1.839984e-001 -1.694401e+000 125 155 78
4.597620e-001 -2.486963e-001 -1.528034e+000 143 171 64
1.111571e+000 -6.731411e-001 -2.859400e+000 76 60 72
2.290483e-001 -3.004691e-001 -1.434717e+000 68 59 1
-3.527975e-002 -4.176716e-001 -1.432041e+000 69 67 68
1.567409e-001 -3.168255e-001 -1.372187e+000 185 208 226
-4.577791e-002 -4.420367e-001 -1.438786e+000 72 66 68
1.542954e-001 -3.276518e-001 -1.368065e+000 75 107 161
2.028925e-001 -3.121932e-001 -1.380451e+000 94 127 167
4.814078e-001 -2.654810e-001 -1.510537e+000 66 158 66
2.489577e-001 -3.189688e-001 -1.413622e+000 93 118 108
1.752288e-001 -3.250967e-001 -1.366949e+000 94 126 169
2.699306e-001 -3.149113e-001 -1.420042e+000 103 137 123
2.263400e-001 -3.270780e-001 -1.401901e+000 103 115 108
2.057675e-001 -3.197075e-001 -1.368159e+000 130 160 201
4.632783e-001 -2.886608e-001 -1.512956e+000 31 25 11
1.948707e-001 -3.303138e-001 -1.366907e+000 49 57 84
2.062402e-001 -3.281918e-001 -1.366828e+000 57 60 76
2.129984e-001 -3.255943e-001 -1.366960e+000 47 47 55
2.490499e-001 -3.281071e-001 -1.398418e+000 41 53 53
5.021324e-001 -2.809973e-001 -1.504362e+000 102 205 119
2.897311e-001 -3.199043e-001 -1.400877e+000 66 69 69
1.412491e-001 -3.548797e-001 -1.346110e+000 106 114 109
1.118275e-001 -3.673981e-001 -1.326943e+000 47 42 45
3.047400e-001 -3.279395e-001 -1.402908e+000 106 124 121
5.184103e-001 -2.725180e-001 -1.469775e+000 107 194 126
1.235149e-001 -3.676597e-001 -1.322291e+000 115 130 127
2.129121e-001 -3.507812e-001 -1.361055e+000 97 112 103
2.520131e-001 -3.369557e-001 -1.371388e+000 63 71 82
4.010276e-001 -3.102199e-001 -1.431810e+000 42 52 51
2.626527e-001 -3.407113e-001 -1.370246e+000 66 77 74
1.348472e-001 -3.672986e-001 -1.314217e+000 56 72 64
1.567349e-001 -3.684222e-001 -1.325738e+000 101 120 110
-2.471011e-001 4.128020e-001 -1.445315e+000 77 62 65
3.570864e-001 5.040480e-001 -1.756070e+000 134 145 128
-2.939160e-002 3.687647e-001 -1.549423e+000 113 110 107
-2.096168e-001 3.345984e-001 -1.405637e+000 161 157 156
3.676659e-001 4.312318e-001 -1.782007e+000 157 171 158
-1.438009e-002 3.364096e-001 -1.556356e+000 47 38 34
-1.632862e-003 3.281205e-001 -1.550810e+000 213 209 208
4.521077e-001 3.807277e-001 -1.785787e+000 191 200 189
4.238485e-001 3.326773e-001 -1.802082e+000 194 212 195
3.755383e-001 2.411245e-001 -1.845975e+000 79 131 59
4.981655e-001 2.237221e-001 -1.851356e+000 122 122 116
1.852398e-002 5.950837e-002 -1.454591e+000 142 124 146
3.675184e-003 2.338804e-003 -1.393255e+000 192 202 195
5.776945e-001 2.435621e-002 -1.832505e+000 27 35 10
2.118873e-001 -1.541871e-002 -1.459927e+000 24 25 27
2.429332e-001 -1.678404e-002 -1.476139e+000 215 214 213
2.292432e-001 -3.231408e-002 -1.460939e+000 208 214 208
2.338953e-001 -5.075890e-002 -1.473542e+000 200 203 194
1.905372e-001 -6.101482e-002 -1.449744e+000 19 19 19
2.112791e-001 -6.004819e-002 -1.466035e+000 216 222 216
2.828128e-001 -6.071357e-002 -1.516220e+000 218 223 222
2.358631e-001 -7.121567e-002 -1.489947e+000 192 195 187
2.593238e-001 -6.607470e-002 -1.499459e+000 22 26 25
2.936416e-001 -7.069973e-002 -1.522672e+000 217 219 216
3.015923e-001 -9.538816e-002 -1.528733e+000 218 215 212
1.873867e-001 -1.248326e-001 -1.472170e+000 203 198 194
3.514064e-001 -2.295911e-001 -1.566065e+000 230 45 28
3.463842e-001 -2.409614e-001 -1.567843e+000 221 193 70
3.464399e-001 -2.528508e-001 -1.569180e+000 74 52 5
3.096525e-001 -2.724195e-001 -1.481505e+000 242 245 96
2.289546e-001 -2.997334e-001 -1.426681e+000 32 26 7
2.508429e-001 -3.218825e-001 -1.409654e+000 108 128 123
3.693403e-001 4.908723e-001 -1.745664e+000 157 172 163
3.805540e-001 4.719125e-001 -1.835280e+000 159 170 155
1.147472e-001 4.178259e-001 -1.618358e+000 74 62 58
-3.475455e-002 3.801944e-001 -1.565827e+000 145 146 143
-2.012566e-001 3.165953e-001 -1.401072e+000 89 74 71
2.762027e-002 3.556773e-001 -1.598982e+000 128 124 113
4.244252e-001 3.462480e-001 -1.796854e+000 119 131 104
-1.647986e-001 2.398986e-001 -1.414905e+000 72 59 54
4.139425e-002 1.965340e-001 -1.578819e+000 205 221 181
4.636068e-001 2.725165e-001 -1.795661e+000 129 148 134
4.996685e-001 2.531457e-001 -1.884354e+000 103 107 99
5.098128e-001 2.362405e-001 -1.919470e+000 71 65 57
5.008859e-001 2.189471e-001 -1.862157e+000 116 117 108
5.527833e-001 2.083985e-001 -1.926072e+000 80 67 51
4.886103e-001 1.954143e-001 -1.829592e+000 143 151 130
5.198981e-001 1.669454e-001 -1.899984e+000 99 97 86
5.264898e-001 1.282521e-001 -1.974650e+000 48 47 31
4.762000e-001 1.404820e-001 -1.829541e+000 68 128 54
-6.697151e-002 6.801902e-002 -1.382624e+000 11 97 123
-4.956810e-002 1.874393e-002 -1.365015e+000 203 202 191
-6.457402e-002 3.729118e-003 -1.371167e+000 38 64 79
2.838600e-001 6.823435e-002 -1.537056e+000 210 186 172
1.596933e-002 9.944057e-003 -1.399632e+000 97 109 95
7.108368e-002 4.725168e-003 -1.421944e+000 20 21 17
1.724631e-001 -5.589768e-003 -1.429580e+000 210 206 202
1.906687e-001 -6.194202e-002 -1.468045e+000 14 15 18
2.779370e-001 -4.686146e-002 -1.504199e+000 33 28 29
2.046259e-001 -7.431188e-002 -1.463794e+000 206 209 203
-7.725063e-002 -1.566184e-001 -1.345832e+000 119 180 184
2.011033e-001 -1.230763e-001 -1.491574e+000 173 175 173
2.478559e-001 -1.135586e-001 -1.486071e+000 211 209 206
5.595100e-001 -1.191372e-001 -1.746793e+000 88 78 67
2.041717e-001 -1.401456e-001 -1.450087e+000 215 195 72
3.235821e-001 -1.554321e-001 -1.549689e+000 56 8 1
2.871816e-001 -1.576888e-001 -1.493627e+000 35 14 13
2.200826e-001 -1.877797e-001 -1.469074e+000 33 24 5
3.642977e-002 -2.313872e-001 -1.400228e+000 105 162 124
6.933409e-002 -2.140499e-001 -1.378010e+000 50 96 64
-4.422115e-002 -3.236486e-001 -1.384537e+000 168 60 83
6.036502e-001 -2.224242e-001 -1.648897e+000 23 22 20
2.058838e-001 -3.002086e-001 -1.415371e+000 121 120 116
1.101919e-001 5.061395e-001 -1.683494e+000 144 144 137
4.059345e-001 4.314080e-001 -1.785589e+000 123 123 103
4.823628e-001 3.796516e-001 -1.844718e+000 173 177 173
4.334805e-001 3.163745e-001 -1.819899e+000 160 181 176
4.586168e-001 3.277553e-001 -1.812754e+000 110 116 100
2.837075e-001 2.637144e-001 -1.673402e+000 87 1 0
2.646957e-001 2.537841e-001 -1.666349e+000 109 143 77
4.761378e-001 1.818103e-001 -1.794275e+000 123 178 94
2.002991e-001 1.949613e-002 -1.467786e+000 128 79 50
1.962269e-001 -1.026943e-001 -1.466683e+000 29 28 26
2.761520e-001 -8.776451e-002 -1.480103e+000 71 73 69
5.484906e-001 -1.371996e-001 -1.706711e+000 102 174 86
4.582588e-002 4.496355e-001 -1.610027e+000 145 140 134
3.240016e-002 3.479446e-001 -1.611763e+000 125 114 102
3.954539e-001 4.160011e-001 -1.754299e+000 189 207 198
-1.634334e-002 3.350172e-001 -1.576848e+000 70 57 47
2.594892e-003 2.977758e-001 -1.579294e+000 177 175 162
-1.290560e-001 2.629706e-001 -1.390966e+000 214 216 220
-1.567029e-001 2.316796e-001 -1.401483e+000 66 47 35
1.290580e-001 2.264957e-001 -1.620734e+000 194 231 187
2.756588e-001 2.576127e-001 -1.642183e+000 121 164 88
5.077091e-001 2.452059e-001 -1.895371e+000 90 92 85
1.659896e-001 1.150443e-001 -1.589927e+000 230 242 239
-1.278651e-001 -7.551724e-003 -1.329859e+000 182 113 138
-6.084358e-002 -1.068065e-001 -1.337613e+000 169 188 149
4.181409e-002 -9.909398e-002 -1.422662e+000 87 173 114
5.036903e-001 -1.208262e-001 -1.736161e+000 99 161 77
2.257116e-001 -1.711557e-001 -1.482103e+000 18 19 15
5.391369e-001 2.233567e-001 -1.867730e+000 173 166 156
1.712650e-001 1.715385e-001 -1.622154e+000 20 20 20
2.017022e-001 1.597507e-001 -1.674181e+000 114 189 94
4.610262e-001 1.874166e-001 -1.858273e+000 21 32 15
4.004682e-001 1.573332e-001 -1.765988e+000 118 180 94
4.614820e-001 1.448006e-001 -1.866805e+000 95 155 82
2.492778e-001 4.558605e-002 -1.531885e+000 219 220 213
-1.782320e-002 4.239934e-001 -1.567953e+000 118 119 111
9.200680e-002 4.405072e-001 -1.644795e+000 196 208 203
-3.152209e-002 3.796090e-001 -1.554616e+000 132 132 127
1.622774e-001 3.929639e-001 -1.624688e+000 130 126 120
2.468819e-001 4.066419e-001 -1.679277e+000 201 232 232
-1.652098e-001 3.117585e-001 -1.369939e+000 173 169 168
-2.051185e-001 3.055963e-001 -1.396647e+000 156 146 150
-2.063824e-002 3.377477e-001 -1.567323e+000 65 53 44
-1.390809e-001 2.657840e-001 -1.390651e+000 229 227 230
4.012955e-001 3.419005e-001 -1.805821e+000 158 178 157
4.328182e-001 3.047912e-001 -1.811362e+000 147 167 154
3.119660e-001 2.650262e-001 -1.680069e+000 230 103 155
3.796062e-001 2.155568e-001 -1.854620e+000 59 109 21
5.795792e-001 2.274849e-001 -1.945994e+000 144 141 136
5.613287e-001 2.177322e-001 -1.880858e+000 205 211 204
6.135313e-001 2.266091e-001 -2.009919e+000 77 71 73
4.894411e-001 1.761426e-001 -1.852935e+000 52 71 27
1.084454e-001 1.070404e-001 -1.559611e+000 209 100 135
8.243031e-002 9.341138e-002 -1.531479e+000 56 144 167
1.675784e-001 9.136845e-002 -1.368302e+000 179 87 114
3.537247e-002 7.424648e-002 -1.484149e+000 59 137 160
3.785593e-001 7.965551e-002 -1.091769e+000 104 150 79
-2.118227e-003 5.774163e-002 -1.442885e+000 81 168 193
4.183217e-002 6.851611e-002 -1.488031e+000 113 148 175
1.911018e-001 8.418926e-002 -1.581424e+000 80 91 89
-1.475174e-001 4.612016e-002 -1.600577e+000 62 139 164
-2.664535e-002 4.839605e-002 -1.421060e+000 187 81 118
-3.037384e-002 4.399975e-002 -1.414545e+000 172 77 105
-4.602398e-002 3.463175e-002 -1.397817e+000 61 144 172
2.659604e-001 7.031606e-002 -1.542295e+000 38 34 16
1.472184e-001 5.473073e-002 -1.530318e+000 84 92 82
1.364287e-001 3.625066e-002 -1.388526e+000 63 75 65
2.102420e-001 3.009711e-002 -1.437119e+000 167 100 57
-7.928485e-004 1.541710e-003 -1.388018e+000 168 176 168
1.654854e-001 1.820336e-002 -1.438434e+000 130 69 32
2.161083e-002 -1.936423e-003 -1.410141e+000 82 92 85
1.912174e-001 1.537820e-002 -1.449663e+000 136 69 36
1.765223e-001 1.131947e-002 -1.440992e+000 170 98 58
1.734806e-001 9.373275e-003 -1.434479e+000 159 92 55
1.657347e-001 7.163629e-003 -1.428029e+000 144 78 39
1.943188e-001 -3.155783e-002 -1.454746e+000 47 45 48
2.175470e-001 -3.384166e-002 -1.466121e+000 29 29 27
2.350542e-001 -3.272419e-002 -1.486302e+000 212 195 193
2.478472e-001 -4.392305e-002 -1.488947e+000 211 214 207
2.337885e-001 -4.881659e-002 -1.470882e+000 205 207 203
2.598825e-001 -6.139072e-002 -1.493220e+000 116 114 115
2.114160e-001 -8.187849e-002 -1.461321e+000 43 39 36
2.185300e-001 -8.211330e-002 -1.468343e+000 217 219 219
2.882405e-001 -7.250901e-002 -1.504235e+000 22 22 18
2.255134e-001 -9.153223e-002 -1.464389e+000 168 170 164
2.213748e-001 -1.086367e-001 -1.470503e+000 219 221 216
2.284783e-001 -1.077510e-001 -1.477336e+000 217 217 215
2.697529e-001 -1.609629e-001 -1.497426e+000 145 115 116
2.731430e-001 -1.652103e-001 -1.502062e+000 159 117 122
2.481934e-001 -1.721694e-001 -1.467701e+000 133 93 92
4.817108e-002 -2.004773e-001 -1.411649e+000 55 89 46
9.789784e-002 -2.503751e-001 -1.448234e+000 58 60 41
3.480658e-001 -2.582979e-001 -1.479546e+000 165 177 123
3.217538e-001 -2.621669e-001 -1.468586e+000 213 228 136
3.374986e-001 -2.614198e-001 -1.467432e+000 97 109 60
3.879448e-001 -2.570020e-001 -1.484351e+000 65 83 0
3.253168e-001 -2.702215e-001 -1.455806e+000 85 93 17
2.201928e-001 -2.845725e-001 -1.439111e+000 217 217 128
3.810956e-001 -2.638331e-001 -1.472657e+000 60 77 15
6.977044e-002 -3.058248e-001 -1.424148e+000 80 148 102
1.872596e-001 -2.924412e-001 -1.439296e+000 90 58 34
2.127239e-001 -2.903237e-001 -1.440630e+000 17 20 0
3.323661e-001 -2.736926e-001 -1.464838e+000 42 53 8
3.775281e-001 -2.738574e-001 -1.473065e+000 77 74 7
3.260602e-001 -2.817008e-001 -1.448618e+000 80 77 13
2.160785e-001 -3.047894e-001 -1.413817e+000 28 25 18
3.176481e-001 -3.096453e-001 -1.421074e+000 75 96 92
1.829180e-001 -3.244689e-001 -1.371853e+000 149 182 218
1.542462e-001 -3.358599e-001 -1.368028e+000 72 69 69
1.910315e-001 -3.294439e-001 -1.363811e+000 65 70 75
2.481375e-001 -3.323357e-001 -1.389502e+000 107 118 110
1.897342e-001 -3.385490e-001 -1.348589e+000 112 100 74
1.982625e-001 -3.467016e-001 -1.368300e+000 81 97 92
2.492672e-001 -3.439092e-001 -1.366720e+000 71 73 68
1.864324e-001 -3.553885e-001 -1.348028e+000 106 122 117
1.140806e-001 -3.755394e-001 -1.317520e+000 115 124 120
1.124457e-001 -3.807798e-001 -1.306006e+000 70 77 73
1.084135e-001 -3.835432e-001 -1.292817e+000 72 93 82
1.908737e-001 -3.845081e-001 -1.304918e+000 67 96 89
1.966801e-001 -4.046958e-001 -1.269332e+000 101 118 112
1.185287e-001 -4.146986e-001 -1.238163e+000 18 18 22
1.544987e-001 -4.117215e-001 -1.250640e+000 78 108 103
9.930619e-002 -4.223252e-001 -1.224877e+000 51 68 61
1.783106e-001 -4.115562e-001 -1.254178e+000 101 114 101
1.409430e-001 -4.186513e-001 -1.247452e+000 19 22 24
1.537065e-001 -4.174264e-001 -1.246924e+000 108 119 118
1.248577e-001 -4.228270e-001 -1.234955e+000 105 116 113
1.712768e-001 -4.201551e-001 -1.246234e+000 107 122 113
2.709094e-001 4.340830e-001 -1.737376e+000 126 172 107
4.116103e-001 3.723854e-001 -1.813655e+000 199 220 215
5.287245e-002 2.843509e-001 -1.636403e+000 233 241 246
8.075229e-002 2.800004e-001 -1.588899e+000 136 136 130
4.103176e-001 3.228919e-001 -1.821456e+000 94 111 75
5.843435e-001 3.166502e-001 -1.985191e+000 48 47 45
-4.080519e-002 -1.571779e-001 -1.383190e+000 132 168 170
3.172677e-001 -2.647198e-001 -1.466597e+000 232 244 123
3.379131e-001 -2.601583e-001 -1.445377e+000 126 134 95
3.655510e-001 -2.707937e-001 -1.453725e+000 37 38 11
1.362179e-001 -4.027097e-001 -1.265780e+000 25 25 29
2.215802e-001 4.853153e-001 -1.760109e+000 189 207 207
-2.231780e-002 4.071329e-001 -1.570791e+000 136 126 124
-1.318244e-003 3.282806e-001 -1.567960e+000 73 66 59
-1.426312e-001 2.374071e-001 -1.393453e+000 84 73 66
5.183024e-002 2.857504e-001 -1.623682e+000 234 241 245
1.211468e-001 2.823444e-001 -1.602652e+000 134 215 235
6.045317e-001 2.514146e-001 -1.974097e+000 20 16 19
4.771316e-001 2.045716e-001 -1.840860e+000 127 135 103
1.680780e-001 1.386975e-001 -1.641306e+000 17 30 27
1.822337e-001 1.226015e-001 -1.602206e+000 29 30 22
1.583431e-002 6.367996e-002 -1.470133e+000 190 87 119
-3.055121e-002 4.656093e-002 -1.421157e+000 185 86 117
1.038624e-001 5.499654e-002 -1.512697e+000 189 195 188
1.097546e-001 3.761018e-002 -1.470593e+000 126 138 126
-7.174069e-002 -9.854317e-004 -1.379088e+000 19 19 22
1.691234e-001 2.017880e-002 -1.432875e+000 177 114 73
3.491016e-002 3.616743e-003 -1.427867e+000 133 144 136
4.696063e-002 -1.435888e-002 -1.443623e+000 27 38 34
2.703578e-001 -1.488395e-004 -1.503399e+000 118 14 8
1.832187e-001 -2.463859e-002 -1.454231e+000 47 42 35
6.815371e-001 -3.457084e-002 -1.985363e+000 61 51 50
2.449368e-001 -1.722673e-001 -1.485622e+000 134 90 90
8.595376e-002 -2.751593e-001 -1.434312e+000 44 60 45
1.253929e-001 -3.911528e-001 -1.289539e+000 19 24 27
-2.079254e-001 3.361933e-001 -1.396960e+000 139 135 131
4.291402e-002 2.846240e-001 -1.619921e+000 229 239 237
3.684354e-002 1.701763e-003 -1.401297e+000 184 194 185
6.205185e-002 -2.021439e-001 -1.421486e+000 44 44 38
4.270223e-002 -2.571478e-001 -1.406060e+000 85 155 101
6.279305e-002 -2.709108e-001 -1.431689e+000 45 60 41
-3.933862e-003 -2.948401e-001 -1.406677e+000 77 153 166
5.014383e-002 -2.963452e-001 -1.412567e+000 82 144 96
9.509493e-002 4.469653e-001 -1.636109e+000 178 189 179
-1.342784e-002 3.543951e-001 -1.559460e+000 87 68 55
5.733308e-003 -5.827009e-002 -1.390579e+000 94 165 120
-4.910825e-002 -9.304121e-002 -1.353796e+000 204 188 153
6.403798e-002 -2.473716e-001 -1.429095e+000 97 170 106
7.722854e-002 -2.681066e-001 -1.420145e+000 39 46 37
9.849522e-002 -2.707674e-001 -1.446414e+000 112 136 119
1.029521e-002 2.895825e-001 -1.660742e+000 231 244 244
1.222400e-001 2.398151e-002 -1.430066e+000 196 181 159
7.342589e-002 -2.102772e-001 -1.433023e+000 40 35 31
-1.156816e-002 1.532810e-004 6.104918e-002 0 255 0
-1.115834e-002 1.687346e-004 1.105086e-002 255 255 0
7.618811e-001 6.595891e-001 -1.494586e-002 255 0 0
7.453292e-001 6.454937e-001 -5.997201e-002 255 255 0
6.570552e-001 9.534066e-003 1.432442e-001 0 255 0
6.432612e-001 1.035866e-002 9.519168e-002 255 255 0
1.042923e+000 1.941680e-001 -1.975716e-001 255 0 0
1.017026e+000 1.898108e-001 -2.401198e-001 255 255 0
