ply
format ascii 1.0
element face 0
property list uchar int vertex_indices
element vertex 861
property float x
property float y
property float z
property uchar diffuse_red
property uchar diffuse_green
property uchar diffuse_blue
end_header
1.054486e-001 1.023914e-001 -1.559067e+000 175 82 113
-5.284632e-002 4.692657e-002 -1.394551e+000 17 114 146
-1.037161e-002 4.098236e-002 -1.437332e+000 208 115 146
1.892175e-001 1.597182e-002 -1.438356e+000 138 74 40
-6.351447e-002 1.358037e-002 -1.366507e+000 118 185 195
-4.603630e-002 9.541941e-003 -1.369400e+000 24 28 21
1.918071e-001 -2.227422e-002 -1.444121e+000 57 57 56
2.911977e-001 -3.133557e-002 -1.527630e+000 213 212 207
2.117713e-001 -8.277802e-002 -1.462165e+000 49 50 45
4.898120e-001 -1.429221e-001 -1.731912e+000 72 105 56
2.268251e-001 -1.223646e-001 -1.469615e+000 207 200 200
5.339374e-001 -1.428991e-001 -1.707146e+000 87 145 68
2.784142e-001 -2.644728e-001 -1.453574e+000 165 174 94
2.377060e-001 -3.345625e-001 -1.389225e+000 30 48 45
2.080208e-001 -3.436999e-001 -1.367407e+000 60 61 61
1.171547e-001 -3.641142e-001 -1.325909e+000 112 129 122
1.577297e-002 6.276105e-002 -1.465099e+000 183 73 107
7.886985e-004 3.836638e-003 -1.383601e+000 209 216 211
5.960141e-002 -2.743791e-001 -1.413577e+000 45 67 41
2.821134e-001 -2.873133e-001 -1.443838e+000 170 149 15
2.015810e-001 -3.432647e-001 -1.358672e+000 33 38 34
2.233876e-001 4.769780e-001 -1.724535e+000 193 211 211
2.176869e-001 4.064564e-001 -1.668440e+000 189 219 233
-3.031394e-002 4.283063e-002 -1.415857e+000 188 85 115
7.905830e-002 -2.534324e-001 -1.429762e+000 53 103 61
8.230779e-002 -2.800398e-001 -1.435693e+000 33 59 38
1.902132e-001 -2.353245e-002 -1.444231e+000 15 14 12
2.756238e-001 -8.518499e-002 -1.528653e+000 216 217 212
3.687487e-001 4.900014e-001 -1.740189e+000 173 183 164
3.856483e-001 4.699867e-001 -1.761404e+000 178 190 174
-3.090808e-002 4.112436e-001 -1.571587e+000 124 121 116
3.181420e-001 4.405824e-001 -1.738112e+000 167 177 191
2.408510e-001 3.982993e-001 -1.658522e+000 35 61 62
-3.112254e-002 3.615259e-001 -1.553674e+000 138 134 132
1.680023e-002 2.870815e-001 -1.550728e+000 175 182 166
4.668200e-001 3.265404e-001 -1.800642e+000 147 150 136
4.915412e-001 1.951850e-001 -1.831984e+000 148 161 135
-6.686827e-002 1.636251e-001 -1.618114e+000 196 115 128
-1.257872e-001 1.580640e-001 -1.684240e+000 190 111 116
-1.240715e-001 1.034334e-001 -1.329887e+000 85 165 177
2.353738e-001 1.048372e-001 -1.595308e+000 71 99 47
5.373673e-002 6.544388e-002 -1.356321e+000 174 94 125
-5.546082e-002 6.934100e-002 -1.395059e+000 66 145 169
2.622726e-001 6.647880e-002 -1.534401e+000 139 109 105
1.360781e-001 5.798659e-002 -1.528285e+000 205 217 207
1.205300e-001 5.303307e-002 -1.518042e+000 178 187 172
1.198388e-001 4.343169e-002 -1.496202e+000 100 110 99
2.059750e-001 4.368675e-002 -1.464142e+000 170 142 131
1.133010e-001 3.898938e-002 -1.487091e+000 117 123 106
8.497956e-002 3.316698e-002 -1.454235e+000 177 190 180
9.722563e-002 3.490816e-002 -1.494847e+000 60 72 59
6.089102e-002 2.942494e-002 -1.453736e+000 192 201 190
2.002890e-001 2.906373e-002 -1.461005e+000 143 81 41
8.530307e-002 2.775745e-002 -1.471797e+000 63 76 59
1.871460e-001 2.461158e-002 -1.446808e+000 126 60 25
6.650467e-002 2.298932e-002 -1.456895e+000 68 79 70
5.670241e-002 1.706097e-002 -1.439877e+000 53 70 60
3.681043e-002 1.046346e-002 -1.425978e+000 110 121 109
5.744534e-002 9.158600e-003 -1.439194e+000 142 164 155
5.586762e-003 3.864078e-003 -1.395853e+000 167 175 167
3.810911e-002 7.262829e-003 -1.424800e+000 145 158 149
5.483516e-002 1.973722e-003 -1.439939e+000 60 75 65
3.721773e-002 -1.177160e-003 -1.424773e+000 61 75 65
1.983243e-001 -1.907162e-002 -1.454875e+000 221 218 219
1.904388e-001 -2.734517e-002 -1.447846e+000 213 209 210
4.243087e-002 -3.040278e-002 -1.429724e+000 82 146 108
2.118992e-001 -2.745755e-002 -1.461848e+000 220 216 215
1.891240e-001 -4.113322e-002 -1.445735e+000 62 54 54
2.484858e-001 -4.404963e-002 -1.491611e+000 222 222 221
2.149073e-001 -5.484993e-002 -1.466027e+000 208 208 203
2.010560e-001 -5.903708e-002 -1.454494e+000 206 209 207
2.356372e-001 -6.388008e-002 -1.478703e+000 146 144 142
2.727615e-001 -7.840127e-002 -1.503070e+000 212 217 210
2.784548e-001 -8.437000e-002 -1.511131e+000 35 35 33
7.109290e-001 -1.194301e-001 -2.013968e+000 170 165 172
2.171557e-001 -9.277786e-002 -1.459893e+000 197 201 194
2.100502e-001 -1.144929e-001 -1.459479e+000 207 207 205
2.027520e-001 -1.238699e-001 -1.451128e+000 140 68 60
2.048882e-001 -1.312271e-001 -1.453330e+000 114 87 19
3.188125e-001 -1.468178e-001 -1.543068e+000 162 119 115
3.270094e-001 -1.549700e-001 -1.549840e+000 99 10 3
6.193248e-001 -1.839547e-001 -1.644493e+000 73 119 60
2.628749e-001 -1.678598e-001 -1.496272e+000 160 113 113
2.512025e-001 -1.690396e-001 -1.482403e+000 165 123 119
6.016279e-001 -2.240802e-001 -1.662247e+000 50 47 48
5.352802e-002 -2.147691e-001 -1.412673e+000 86 126 96
3.541877e-001 -2.400650e-001 -1.561776e+000 224 192 98
4.659211e-001 -2.448862e-001 -1.511476e+000 64 89 13
4.737768e-001 -2.500586e-001 -1.514259e+000 21 47 2
4.794347e-001 -2.452296e-001 -1.498108e+000 64 108 47
4.280921e-001 -2.546086e-001 -1.558635e+000 33 36 9
4.185810e-002 -2.343910e-001 -1.399985e+000 54 95 53
4.942954e-001 -2.697401e-001 -1.503947e+000 96 188 99
5.064452e-001 -2.729609e-001 -1.499705e+000 77 164 78
5.511272e-001 -2.785386e-001 -1.483098e+000 91 191 103
4.776671e-001 -2.898880e-001 -1.523049e+000 43 44 34
4.901696e-001 -2.858802e-001 -1.487556e+000 133 128 100
5.228570e-001 -2.942608e-001 -1.496861e+000 48 59 59
5.211821e-001 -2.906406e-001 -1.472386e+000 57 70 74
5.610138e-001 -3.306891e-001 -1.442988e+000 72 82 94
1.580209e-001 -3.198329e-001 -1.372381e+000 176 208 211
5.489148e-001 -3.338652e-001 -1.415677e+000 98 112 110
1.344112e-001 -3.273465e-001 -1.374258e+000 32 47 45
3.068834e-001 -3.302189e-001 -1.386952e+000 104 120 123
1.588654e-001 -3.249743e-001 -1.358258e+000 115 148 202
2.129246e-001 -3.276133e-001 -1.371630e+000 51 52 58
2.018184e-001 -3.291524e-001 -1.367823e+000 64 69 83
1.766320e-001 -3.330294e-001 -1.366100e+000 91 92 100
1.644427e-001 -3.343542e-001 -1.363517e+000 103 102 102
2.246867e-001 -3.380434e-001 -1.371529e+000 79 84 87
3.257413e-001 -3.493854e-001 -1.378270e+000 123 163 144
2.061345e-001 -3.484925e-001 -1.364648e+000 16 15 11
2.889460e-001 -3.569339e-001 -1.379269e+000 185 197 198
1.809812e-001 -3.537381e-001 -1.352235e+000 16 23 18
1.382484e-001 -3.576454e-001 -1.343110e+000 109 126 120
-5.939478e-002 -3.892560e-001 -1.412150e+000 128 125 130
-4.747223e-002 -3.970570e-001 -1.417393e+000 129 128 136
4.776091e-001 -3.810174e-001 -1.330775e+000 11 20 9
4.321261e-001 -3.775787e-001 -1.302873e+000 26 26 26
-7.569273e-002 -4.094573e-001 -1.411476e+000 89 85 83
4.574416e-001 -3.906623e-001 -1.320073e+000 77 80 69
4.527638e-001 -3.880752e-001 -1.320365e+000 54 53 48
-6.692196e-002 -4.178434e-001 -1.414240e+000 117 113 117
1.625598e-001 -3.886967e-001 -1.289522e+000 26 42 31
3.888283e-001 -3.949992e-001 -1.300420e+000 88 83 77
3.674607e-001 -3.969975e-001 -1.293655e+000 88 85 80
3.239202e-001 -4.025366e-001 -1.284641e+000 82 76 70
3.024545e-001 -4.037994e-001 -1.275090e+000 84 81 73
3.248170e-001 -4.073420e-001 -1.280909e+000 119 151 140
1.886674e-001 -4.052107e-001 -1.265937e+000 132 155 141
2.680382e-001 -4.140813e-001 -1.285268e+000 31 39 30
-2.268365e-001 2.204549e-001 -1.372234e+000 149 134 130
8.080771e-002 2.649355e-002 -1.445736e+000 53 67 50
3.631836e-002 -9.649219e-003 -1.428453e+000 126 140 128
2.480489e-001 -9.732690e-003 -1.500902e+000 47 17 18
2.084747e-001 -1.357198e-002 -1.468439e+000 39 33 31
2.470039e-001 -1.810336e-002 -1.493920e+000 73 35 35
1.700317e-002 -6.381682e-002 -1.400282e+000 56 105 76
2.052624e-001 -8.137405e-002 -1.455775e+000 207 208 206
-6.020210e-002 -9.175119e-002 -1.373327e+000 206 180 149
2.366562e-001 -1.160843e-001 -1.475593e+000 29 24 21
1.925271e-001 -1.178197e-001 -1.453366e+000 213 204 196
2.867671e-001 -1.630692e-001 -1.556614e+000 189 146 141
3.516812e-001 -2.335725e-001 -1.570441e+000 196 63 18
8.685560e-002 -2.555402e-001 -1.441399e+000 104 139 98
1.921052e-001 -3.446573e-001 -1.364808e+000 108 102 84
2.326079e-001 3.955148e-001 -1.670760e+000 31 39 43
4.126294e-002 3.042686e-001 -1.626137e+000 208 238 191
3.525209e-001 2.826830e-001 -1.727577e+000 227 111 174
2.917982e-001 2.640833e-001 -1.666287e+000 103 0 0
3.213519e-001 2.665667e-001 -1.678779e+000 216 95 157
-1.628595e-001 1.859184e-001 -1.384024e+000 196 211 172
1.728095e-001 1.294349e-001 -1.611207e+000 22 55 32
2.778005e-001 6.861229e-002 -1.512430e+000 226 192 183
8.352222e-002 2.804850e-002 -1.432417e+000 48 62 48
1.066463e-001 1.172676e-002 -1.418281e+000 47 36 29
5.641935e-002 4.993761e-003 -1.437892e+000 140 159 148
3.504960e-002 -7.642530e-003 -1.417283e+000 136 150 139
2.476178e-001 -1.446569e-002 -1.483983e+000 58 12 12
2.040618e-001 -4.051086e-002 -1.451365e+000 215 219 218
2.453423e-001 -9.667560e-002 -1.487346e+000 34 35 33
5.203222e-001 -1.275741e-001 -1.725700e+000 106 158 78
2.054489e-001 -1.348952e-001 -1.452516e+000 103 81 28
2.330446e-001 -1.754416e-001 -1.470394e+000 124 88 86
-8.341300e-002 -1.629376e-001 -1.357031e+000 127 168 169
2.737232e-001 -1.811298e-001 -1.512336e+000 202 159 65
3.668588e-001 -2.258088e-001 -1.569342e+000 49 20 11
4.670418e-001 -2.598856e-001 -1.510364e+000 236 239 89
4.829223e-001 -2.757397e-001 -1.523215e+000 19 38 4
5.052397e-001 -2.715969e-001 -1.491257e+000 77 164 80
5.435825e-001 -2.843038e-001 -1.520604e+000 103 197 109
5.000338e-001 -3.009219e-001 -1.476710e+000 87 138 123
2.061948e-001 -3.214924e-001 -1.410155e+000 133 156 204
2.994330e-002 3.542892e-001 -1.593666e+000 117 107 100
-1.475459e-002 3.263527e-001 -1.551927e+000 229 237 240
-1.433542e-001 1.985145e-001 -1.411291e+000 73 59 34
-1.212410e-001 1.969462e-001 -1.401699e+000 223 237 235
1.706029e-001 1.403110e-001 -1.619664e+000 28 65 36
2.703680e-001 5.776010e-002 -1.532760e+000 217 221 214
7.211990e-003 -1.182028e-002 -1.392115e+000 154 174 163
2.398609e-001 -5.548364e-002 -1.457559e+000 110 115 111
2.370247e-001 -8.902197e-002 -1.467089e+000 57 54 50
-6.626054e-002 -2.155113e-001 -1.356498e+000 201 175 156
5.565001e-001 -3.155085e-001 -1.453267e+000 100 120 138
-1.159989e-001 2.036031e-001 -1.401590e+000 227 235 237
-1.559976e-001 1.088441e-001 -1.313975e+000 204 212 178
9.338741e-002 2.285543e-002 -1.457852e+000 200 188 155
2.081465e-001 -2.055130e-002 -1.495887e+000 85 83 78
2.692092e-001 -1.842669e-001 -1.500537e+000 217 193 49
6.748952e-002 -2.464413e-001 -1.421660e+000 90 165 106
-1.141839e-001 2.104408e-001 -1.408192e+000 227 234 238
5.378494e-002 -1.812335e-001 -1.432681e+000 100 163 101
3.339445e-001 5.205729e-001 -1.720995e+000 158 175 167
-2.535415e-001 3.897671e-001 -1.432562e+000 130 115 117
-2.115051e-002 4.325573e-001 -1.573730e+000 120 122 118
-2.111490e-002 4.270103e-001 -1.571423e+000 116 111 110
-2.938852e-002 4.206401e-001 -1.567312e+000 139 140 135
-2.198591e-001 3.581311e-001 -1.417840e+000 126 117 118
-2.279559e-001 3.452379e-001 -1.408130e+000 131 117 121
2.720111e-001 4.349156e-001 -1.733214e+000 87 95 82
3.232370e-001 4.402675e-001 -1.756624e+000 200 219 231
-2.121370e-001 3.389304e-001 -1.410237e+000 117 106 107
3.264365e-001 4.378559e-001 -1.741887e+000 62 88 93
2.350943e-001 4.174564e-001 -1.683556e+000 180 196 206
3.183562e-001 4.355206e-001 -1.727131e+000 59 83 88
-2.282004e-001 3.253363e-001 -1.411409e+000 90 72 73
-2.362382e-001 3.090573e-001 -1.409718e+000 92 68 62
3.787575e-001 4.174283e-001 -1.794445e+000 191 214 205
3.825191e-001 4.076221e-001 -1.782413e+000 195 222 214
5.598467e-001 4.330391e-001 -1.926604e+000 53 44 56
-2.139218e-001 2.956699e-001 -1.394517e+000 158 152 152
4.019353e-001 3.847483e-001 -1.796626e+000 189 207 191
2.647623e-002 3.082766e-001 -1.623954e+000 96 95 89
4.088858e-001 3.818942e-001 -1.800338e+000 159 176 158
5.900485e-002 3.074453e-001 -1.636224e+000 150 140 130
4.063914e-001 3.716894e-001 -1.800638e+000 198 216 208
3.883296e-001 3.345936e-001 -1.856950e+000 166 194 172
4.214342e-001 3.536917e-001 -1.804497e+000 121 136 111
-2.387979e-001 2.318637e-001 -1.396233e+000 138 127 131
4.306393e-001 3.532970e-001 -1.797619e+000 182 199 187
4.212403e-001 3.343635e-001 -1.815316e+000 184 200 183
4.920954e-001 3.376857e-001 -1.807807e+000 194 205 200
4.293578e-001 3.137846e-001 -1.806362e+000 182 202 191
5.846014e-001 3.254946e-001 -1.985705e+000 87 86 84
4.787295e-001 3.181361e-001 -1.796064e+000 175 186 180
-2.495252e-001 1.815027e-001 -1.370501e+000 117 98 90
5.936465e-001 3.090581e-001 -1.986669e+000 90 93 86
4.406748e-001 2.948122e-001 -1.808670e+000 164 185 170
5.943185e-001 3.026266e-001 -1.995427e+000 44 46 40
4.539416e-001 2.707537e-001 -1.805877e+000 151 167 143
3.522572e-001 2.622475e-001 -1.685298e+000 252 143 218
4.771362e-001 2.787212e-001 -1.794405e+000 197 217 211
3.846602e-001 2.267660e-001 -1.860385e+000 150 185 88
4.673034e-001 2.603460e-001 -1.797831e+000 116 129 109
4.748338e-001 2.588978e-001 -1.798850e+000 177 194 188
3.750195e-001 2.036752e-001 -1.865864e+000 74 138 59
4.857681e-001 2.199972e-001 -1.818044e+000 120 130 105
5.611380e-001 2.181962e-001 -1.916496e+000 207 210 208
5.584838e-001 2.068050e-001 -1.912479e+000 119 87 71
4.892730e-001 1.954927e-001 -1.837560e+000 159 174 151
3.669943e-001 1.482837e-001 -1.836036e+000 194 230 106
-1.022073e-001 1.119664e-001 -1.352875e+000 181 106 109
3.620817e-001 1.445723e-001 -1.828789e+000 62 108 16
-1.520941e-001 9.679291e-002 -1.310686e+000 181 149 125
5.532828e-001 1.522371e-001 -1.932364e+000 177 185 176
4.653780e-001 1.412488e-001 -1.846123e+000 60 116 51
5.152414e-001 1.338017e-001 -1.928959e+000 86 80 67
5.233129e-001 1.356261e-001 -1.930837e+000 123 108 92
5.330795e-001 1.308582e-001 -1.929785e+000 126 115 105
6.439177e-001 1.445455e-001 -2.021044e+000 141 138 145
6.461861e-001 1.346629e-001 -2.021724e+000 112 106 113
1.780774e-001 9.599958e-002 -1.588109e+000 112 148 126
-6.748995e-002 6.999215e-002 -1.381422e+000 36 129 157
-5.775303e-002 6.705516e-002 -1.388112e+000 44 136 161
1.972042e-001 7.524617e-002 -1.585431e+000 185 185 159
1.325954e-001 5.121891e-002 -1.527865e+000 47 57 43
6.387535e-002 3.000200e-002 -1.450384e+000 140 152 137
2.887791e-001 7.194151e-002 -1.530874e+000 182 168 148
1.371155e-002 1.160920e-002 -1.400909e+000 154 165 153
-2.237118e-002 7.160861e-003 -1.358731e+000 87 104 86
1.050512e-002 5.478440e-003 -1.391251e+000 128 142 133
3.623166e-001 8.597489e-002 -1.515420e+000 138 204 114
4.435930e-001 9.878881e-002 -1.538223e+000 63 127 44
2.768487e-002 -1.321522e-002 -1.417951e+000 84 99 91
4.157960e-001 8.033256e-002 -1.521191e+000 84 157 59
2.659373e-001 2.053760e-003 -1.511522e+000 127 9 1
2.494923e-001 -2.205339e-003 -1.495711e+000 188 181 181
2.073944e-001 -1.458137e-002 -1.463422e+000 69 69 71
2.166964e-001 -1.466507e-002 -1.469067e+000 156 156 152
2.575678e-001 -1.115478e-002 -1.501800e+000 229 44 38
2.752393e-001 -1.353715e-002 -1.515516e+000 153 13 11
2.043490e-001 -1.921502e-002 -1.456964e+000 17 15 16
2.289611e-001 -2.147458e-002 -1.475986e+000 34 33 33
2.484008e-001 -2.080525e-002 -1.494330e+000 77 14 10
2.542168e-001 -2.051968e-002 -1.495910e+000 158 49 47
2.099407e-001 -2.486476e-002 -1.464336e+000 209 212 209
2.305637e-001 -2.707721e-002 -1.479526e+000 22 23 23
2.312657e-001 -2.874121e-002 -1.484397e+000 49 48 50
2.194846e-001 -3.138900e-002 -1.469752e+000 20 20 21
2.376657e-001 -2.994834e-002 -1.485878e+000 94 87 80
6.523659e-001 -5.984175e-002 -1.956918e+000 183 192 189
2.657177e-001 -3.812558e-002 -1.503398e+000 183 184 181
2.347496e-001 -4.691777e-002 -1.473906e+000 173 176 167
6.700564e-001 -7.406311e-002 -1.970853e+000 126 133 137
2.783460e-001 -5.325737e-002 -1.516731e+000 88 87 88
2.062966e-001 -5.833593e-002 -1.457722e+000 43 48 42
2.747872e-001 -5.435700e-002 -1.511984e+000 24 21 23
6.759996e-001 -8.905812e-002 -2.000627e+000 168 169 167
2.571596e-001 -6.015334e-002 -1.496550e+000 95 96 91
2.138992e-001 -6.856830e-002 -1.467882e+000 25 23 24
2.353694e-001 -6.380881e-002 -1.479484e+000 125 125 121
6.851565e-001 -8.584549e-002 -1.974380e+000 98 103 103
2.686177e-001 -6.502568e-002 -1.508346e+000 211 212 209
6.791688e-001 -1.006361e-001 -1.980803e+000 104 90 79
2.421816e-001 -7.476860e-002 -1.489536e+000 219 217 215
2.808505e-001 -7.493637e-002 -1.515140e+000 109 116 109
2.699312e-001 -7.797516e-002 -1.503981e+000 183 190 182
2.583513e-001 -8.182378e-002 -1.499756e+000 199 203 201
3.039475e-001 -8.124038e-002 -1.532761e+000 163 164 164
2.778911e-001 -8.790874e-002 -1.513160e+000 44 41 41
3.026384e-001 -8.777296e-002 -1.530873e+000 93 94 92
2.918154e-001 -9.527954e-002 -1.523009e+000 78 84 80
3.064486e-001 -9.351629e-002 -1.534216e+000 196 199 194
2.878600e-001 -9.992859e-002 -1.517222e+000 180 179 177
2.459004e-001 -1.031465e-001 -1.484741e+000 25 24 20
2.642132e-001 -1.078156e-001 -1.499852e+000 216 218 217
2.761404e-001 -1.048143e-001 -1.508627e+000 202 198 200
2.553162e-001 -1.129597e-001 -1.491243e+000 138 136 136
1.953254e-001 -1.230724e-001 -1.441878e+000 200 182 170
2.046719e-001 -1.180278e-001 -1.445292e+000 177 158 52
5.029615e-001 -1.448483e-001 -1.726862e+000 69 113 50
-6.261714e-002 -2.069583e-001 -1.351113e+000 197 169 149
3.194104e-001 -1.465072e-001 -1.540779e+000 164 130 126
3.046679e-001 -1.495027e-001 -1.525914e+000 123 96 92
3.079337e-001 -1.491832e-001 -1.532341e+000 137 113 110
3.282699e-001 -1.547924e-001 -1.545892e+000 113 12 3
5.259884e-002 -2.121014e-001 -1.413682e+000 77 114 88
2.513198e-001 -1.676121e-001 -1.486282e+000 143 116 107
2.785953e-001 -1.637350e-001 -1.500968e+000 169 129 128
4.446771e-002 -2.191901e-001 -1.402885e+000 23 70 33
5.591304e-002 -2.210430e-001 -1.414688e+000 86 128 98
2.727512e-001 -1.782331e-001 -1.500161e+000 160 120 36
6.598007e-001 -1.391983e-001 -1.624776e+000 52 125 58
3.572967e-001 -2.352626e-001 -1.567201e+000 210 53 40
6.460274e-001 -1.477761e-001 -1.631439e+000 91 172 98
3.616053e-001 -2.364755e-001 -1.570003e+000 213 119 107
6.222274e-001 -1.627313e-001 -1.629341e+000 82 165 92
6.322649e-001 -1.538230e-001 -1.621792e+000 95 193 110
1.051620e-001 -2.897984e-001 -1.449849e+000 63 129 87
-4.048862e-003 -3.080274e-001 -1.374912e+000 112 148 165
3.551458e-002 -2.957534e-001 -1.388222e+000 40 40 37
6.084051e-001 -2.154470e-001 -1.664538e+000 117 130 120
4.597340e-001 -2.189858e-001 -1.535804e+000 93 120 63
2.197487e-001 -2.881736e-001 -1.437379e+000 210 215 115
7.988258e-001 -1.836147e-001 -1.694898e+000 125 155 78
4.609799e-001 -2.483516e-001 -1.526764e+000 143 171 64
1.123977e+000 -6.832533e-001 -2.874309e+000 76 60 72
2.294513e-001 -3.011778e-001 -1.433868e+000 68 59 1
-3.456657e-002 -4.182673e-001 -1.427840e+000 69 67 68
1.569722e-001 -3.175657e-001 -1.371257e+000 185 208 226
-4.493128e-002 -4.425919e-001 -1.434193e+000 72 66 68
1.545186e-001 -3.284347e-001 -1.367134e+000 75 107 161
2.033866e-001 -3.126129e-001 -1.379438e+000 94 127 167
4.822312e-001 -2.655576e-001 -1.510290e+000 66 158 66
2.494995e-001 -3.193769e-001 -1.412398e+000 93 118 108
1.756005e-001 -3.256725e-001 -1.365965e+000 94 126 169
2.703495e-001 -3.159076e-001 -1.419613e+000 103 137 123
2.268899e-001 -3.276196e-001 -1.400900e+000 103 115 108
2.063226e-001 -3.200067e-001 -1.367105e+000 130 160 201
4.645552e-001 -2.882664e-001 -1.511555e+000 31 25 11
1.953562e-001 -3.307554e-001 -1.365888e+000 49 57 84
2.067986e-001 -3.285179e-001 -1.365773e+000 57 60 76
2.136004e-001 -3.258448e-001 -1.365879e+000 47 47 55
2.496205e-001 -3.284116e-001 -1.397156e+000 41 53 53
5.034289e-001 -2.801615e-001 -1.502722e+000 102 205 119
2.906200e-001 -3.198319e-001 -1.399647e+000 66 69 69
1.414211e-001 -3.557334e-001 -1.345212e+000 106 114 109
1.124138e-001 -3.677150e-001 -1.325237e+000 47 42 45
3.056776e-001 -3.278064e-001 -1.401657e+000 106 124 121
5.196399e-001 -2.711282e-001 -1.467868e+000 107 194 126
1.236920e-001 -3.684498e-001 -1.321338e+000 115 130 127
2.135002e-001 -3.511239e-001 -1.360008e+000 97 112 103
2.527951e-001 -3.369750e-001 -1.370225e+000 63 71 82
4.022181e-001 -3.094832e-001 -1.430257e+000 42 52 51
2.634824e-001 -3.406450e-001 -1.369060e+000 66 77 74
1.351484e-001 -3.678837e-001 -1.313228e+000 56 72 64
1.573166e-001 -3.686263e-001 -1.324368e+000 101 120 110
-2.495606e-001 4.139988e-001 -1.445103e+000 77 62 65
3.571573e-001 5.062021e-001 -1.757035e+000 134 145 128
-3.098883e-002 3.701424e-001 -1.549313e+000 113 110 107
-2.116389e-001 3.354453e-001 -1.405357e+000 161 157 156
3.672690e-001 4.331156e-001 -1.784896e+000 157 171 158
-1.599562e-002 3.376225e-001 -1.556407e+000 47 38 34
-3.140002e-003 3.292827e-001 -1.550849e+000 213 209 208
4.509682e-001 3.823683e-001 -1.795164e+000 191 200 189
4.228357e-001 3.347114e-001 -1.808717e+000 194 212 195
3.761056e-001 2.424268e-001 -1.847569e+000 79 131 59
4.987772e-001 2.245023e-001 -1.855080e+000 122 122 116
1.729669e-002 5.938263e-002 -1.454536e+000 142 124 146
3.053380e-003 2.176398e-003 -1.391990e+000 192 202 195
5.790994e-001 2.408603e-002 -1.835248e+000 27 35 10
2.118237e-001 -1.533591e-002 -1.459820e+000 24 25 27
2.397430e-001 -1.806713e-002 -1.485426e+000 215 214 213
2.291381e-001 -3.239871e-002 -1.461060e+000 208 214 208
2.318531e-001 -5.234161e-002 -1.477951e+000 200 203 194
1.915206e-001 -5.952441e-002 -1.447481e+000 19 19 19
2.112488e-001 -6.015172e-002 -1.465854e+000 216 222 216
2.826052e-001 -6.077840e-002 -1.517240e+000 218 223 222
2.402313e-001 -6.814312e-002 -1.479059e+000 192 195 187
2.592966e-001 -6.628407e-002 -1.499717e+000 22 26 25
2.937902e-001 -7.099794e-002 -1.522936e+000 217 219 216
3.019092e-001 -9.559712e-002 -1.528621e+000 218 215 212
1.872533e-001 -1.253613e-001 -1.471954e+000 203 198 194
3.521513e-001 -2.303955e-001 -1.565756e+000 230 45 28
3.471138e-001 -2.418834e-001 -1.567566e+000 221 193 70
3.471847e-001 -2.538528e-001 -1.568903e+000 74 52 5
3.104019e-001 -2.728699e-001 -1.480640e+000 242 245 96
2.294273e-001 -3.003839e-001 -1.425792e+000 32 26 7
2.513526e-001 -3.223571e-001 -1.408781e+000 108 128 123
3.695940e-001 4.930164e-001 -1.745519e+000 157 172 163
3.808983e-001 4.742358e-001 -1.836786e+000 159 170 155
1.138802e-001 4.195404e-001 -1.618261e+000 74 62 58
-3.648085e-002 3.816277e-001 -1.565804e+000 145 146 143
-2.027042e-001 3.174357e-001 -1.399681e+000 89 74 71
2.610621e-002 3.570618e-001 -1.599304e+000 128 124 113
4.243804e-001 3.476896e-001 -1.799983e+000 119 131 104
-1.662566e-001 2.405972e-001 -1.413598e+000 72 59 54
3.960735e-002 1.969370e-001 -1.579723e+000 205 221 181
4.638647e-001 2.735582e-001 -1.798647e+000 129 148 134
5.011677e-001 2.544839e-001 -1.885515e+000 103 107 99
5.106364e-001 2.371080e-001 -1.924301e+000 71 65 57
5.015528e-001 2.196972e-001 -1.866015e+000 116 117 108
5.544653e-001 2.093606e-001 -1.928981e+000 80 67 51
4.891929e-001 1.960216e-001 -1.832946e+000 143 151 130
5.163939e-001 1.640853e-001 -1.923016e+000 99 97 86
5.277500e-001 1.281399e-001 -1.980706e+000 48 47 31
4.768275e-001 1.407159e-001 -1.832894e+000 68 128 54
-6.814774e-002 6.803480e-002 -1.381954e+000 11 97 123
-5.052685e-002 1.865691e-002 -1.364490e+000 203 202 191
-6.575441e-002 3.480027e-003 -1.370474e+000 38 64 79
2.838216e-001 6.848708e-002 -1.537546e+000 210 186 172
1.385726e-002 8.185889e-003 -1.402841e+000 97 109 95
7.038316e-002 4.597569e-003 -1.421757e+000 20 21 17
1.721599e-001 -5.559952e-003 -1.429632e+000 210 206 202
1.941114e-001 -5.914372e-002 -1.451233e+000 14 15 18
2.780949e-001 -4.826358e-002 -1.509149e+000 33 28 29
2.054026e-001 -7.399587e-002 -1.460704e+000 206 209 203
-7.846952e-002 -1.576156e-001 -1.344863e+000 119 180 184
2.009855e-001 -1.236619e-001 -1.491444e+000 173 175 173
2.483769e-001 -1.134325e-001 -1.486968e+000 211 209 206
5.609884e-001 -1.197292e-001 -1.747830e+000 88 78 67
2.044357e-001 -1.411411e-001 -1.449122e+000 215 195 72
3.240793e-001 -1.559205e-001 -1.549507e+000 56 8 1
2.876156e-001 -1.579486e-001 -1.493166e+000 35 14 13
2.221806e-001 -1.865554e-001 -1.464061e+000 33 24 5
3.577953e-002 -2.320313e-001 -1.399656e+000 105 162 124
4.973858e-002 -2.281536e-001 -1.405237e+000 50 96 64
-4.392417e-002 -3.241834e-001 -1.381476e+000 168 60 83
6.051755e-001 -2.223188e-001 -1.648229e+000 23 22 20
2.062601e-001 -3.009217e-001 -1.414488e+000 121 120 116
1.092444e-001 5.083914e-001 -1.683331e+000 144 144 137
4.057138e-001 4.332629e-001 -1.788484e+000 123 123 103
4.856983e-001 3.797707e-001 -1.832431e+000 173 177 173
4.335586e-001 3.176879e-001 -1.823297e+000 160 181 176
4.593329e-001 3.291774e-001 -1.807700e+000 110 116 100
2.830849e-001 2.645799e-001 -1.675306e+000 87 1 0
2.645364e-001 2.549225e-001 -1.666811e+000 109 143 77
4.771462e-001 1.827240e-001 -1.795747e+000 123 178 94
2.001009e-001 1.961430e-002 -1.467818e+000 128 79 50
1.961597e-001 -1.030357e-001 -1.466439e+000 29 28 26
2.762641e-001 -8.802358e-002 -1.480210e+000 71 73 69
5.498963e-001 -1.375866e-001 -1.707117e+000 102 174 86
4.456504e-002 4.514683e-001 -1.609954e+000 145 140 134
3.057597e-002 3.492342e-001 -1.612657e+000 125 114 102
3.900611e-001 4.174125e-001 -1.776425e+000 189 207 198
-1.556352e-002 3.363338e-001 -1.572419e+000 70 57 47
7.006262e-004 2.987630e-001 -1.579919e+000 177 175 162
-1.283697e-001 2.633983e-001 -1.386832e+000 214 216 220
-1.584466e-001 2.322150e-001 -1.401123e+000 66 47 35
1.276718e-001 2.270992e-001 -1.622134e+000 194 231 187
2.755290e-001 2.587337e-001 -1.642636e+000 121 164 88
5.084498e-001 2.461399e-001 -1.899746e+000 90 92 85
1.654129e-001 1.153848e-001 -1.590177e+000 230 242 239
-1.289836e-001 -7.764324e-003 -1.328672e+000 182 113 138
-6.183209e-002 -1.074103e-001 -1.336722e+000 169 188 149
4.122854e-002 -9.963096e-002 -1.421909e+000 87 173 114
5.049425e-001 -1.216260e-001 -1.737327e+000 99 161 77
2.258184e-001 -1.717753e-001 -1.481681e+000 18 19 15
5.400067e-001 2.241702e-001 -1.871523e+000 173 166 156
1.705930e-001 1.720450e-001 -1.622785e+000 20 20 20
2.006163e-001 1.599546e-001 -1.676193e+000 114 189 94
4.614976e-001 1.879004e-001 -1.862274e+000 21 32 15
4.005761e-001 1.576654e-001 -1.768681e+000 118 180 94
4.620665e-001 1.449651e-001 -1.870864e+000 95 155 82
2.491400e-001 4.571164e-002 -1.532237e+000 219 220 213
-1.948654e-002 4.256225e-001 -1.567997e+000 118 119 111
9.080851e-002 4.423738e-001 -1.645386e+000 196 208 203
-3.316412e-002 3.809887e-001 -1.554475e+000 132 132 127
1.615787e-001 3.944635e-001 -1.625127e+000 130 126 120
2.467124e-001 4.082130e-001 -1.679656e+000 201 232 232
-1.661639e-001 3.123911e-001 -1.368316e+000 173 169 168
-2.060351e-001 3.061775e-001 -1.394368e+000 156 146 150
-2.221296e-002 3.389461e-001 -1.567178e+000 65 53 44
-1.401524e-001 2.663450e-001 -1.389228e+000 229 227 230
4.099900e-001 3.416613e-001 -1.781411e+000 158 178 157
4.340305e-001 3.059605e-001 -1.811419e+000 147 167 154
3.123165e-001 2.659522e-001 -1.680116e+000 230 103 155
3.807097e-001 2.163247e-001 -1.855607e+000 59 109 21
5.819463e-001 2.284077e-001 -1.947029e+000 144 141 136
5.592351e-001 2.195760e-001 -1.912135e+000 205 211 204
6.163546e-001 2.275876e-001 -2.011908e+000 77 71 73
4.914642e-001 1.759252e-001 -1.846592e+000 52 71 27
1.063496e-001 1.074746e-001 -1.562506e+000 209 100 135
8.014967e-002 9.440934e-002 -1.533993e+000 56 144 167
1.669613e-001 9.180216e-002 -1.369011e+000 179 87 114
3.288354e-002 7.413955e-002 -1.486806e+000 59 137 160
3.773421e-001 8.094074e-002 -1.095824e+000 104 150 79
-2.966803e-003 5.768289e-002 -1.442105e+000 81 168 193
6.001442e-002 6.888171e-002 -1.450739e+000 113 148 175
1.908229e-001 8.428229e-002 -1.581552e+000 80 91 89
-1.488007e-001 4.550106e-002 -1.598142e+000 62 139 164
-2.746210e-002 4.831007e-002 -1.420074e+000 187 81 118
-3.246366e-002 4.371193e-002 -1.415779e+000 172 77 105
-4.671620e-002 3.452395e-002 -1.396570e+000 61 144 172
2.659883e-001 7.053884e-002 -1.542396e+000 38 34 16
1.467475e-001 5.471169e-002 -1.530306e+000 84 92 82
1.144984e-001 3.452680e-002 -1.432794e+000 63 75 65
2.009378e-001 2.927340e-002 -1.458687e+000 167 100 57
-2.621835e-003 4.228219e-004 -1.387519e+000 168 176 168
1.650500e-001 1.827737e-002 -1.438620e+000 130 69 32
2.094720e-002 -2.110483e-003 -1.409443e+000 82 92 85
1.908638e-001 1.546365e-002 -1.449905e+000 136 69 36
1.761286e-001 1.138481e-002 -1.441196e+000 170 98 58
1.730576e-001 9.440384e-003 -1.434724e+000 159 92 55
1.652957e-001 7.225848e-003 -1.428249e+000 144 78 39
1.955748e-001 -3.137671e-002 -1.452062e+000 47 45 48
2.166472e-001 -3.359308e-002 -1.467759e+000 29 29 27
2.362806e-001 -3.266439e-002 -1.483512e+000 212 195 193
2.474545e-001 -4.353877e-002 -1.492526e+000 211 214 207
2.336445e-001 -4.892897e-002 -1.471108e+000 205 207 203
2.598867e-001 -6.155379e-002 -1.493384e+000 116 114 115
2.112298e-001 -8.213708e-002 -1.461465e+000 43 39 36
2.192847e-001 -8.236042e-002 -1.464968e+000 217 219 219
2.883334e-001 -7.268466e-002 -1.504469e+000 22 22 18
2.244035e-001 -9.218147e-002 -1.466992e+000 168 170 164
2.199373e-001 -1.098476e-001 -1.472673e+000 219 221 216
2.283933e-001 -1.081247e-001 -1.477450e+000 217 217 215
2.696936e-001 -1.613730e-001 -1.499461e+000 145 115 116
2.732996e-001 -1.657837e-001 -1.502143e+000 159 117 122
2.436789e-001 -1.754876e-001 -1.476983e+000 133 93 92
4.891209e-002 -2.004712e-001 -1.409877e+000 55 89 46
9.800042e-002 -2.513853e-001 -1.446849e+000 58 60 41
3.483910e-001 -2.588633e-001 -1.479844e+000 165 177 123
3.220102e-001 -2.627849e-001 -1.468838e+000 213 228 136
3.377797e-001 -2.619636e-001 -1.467723e+000 97 109 60
3.900644e-001 -2.565620e-001 -1.479175e+000 65 83 0
3.252388e-001 -2.713042e-001 -1.457223e+000 85 93 17
2.203994e-001 -2.853622e-001 -1.438660e+000 217 217 128
3.814433e-001 -2.642477e-001 -1.473063e+000 60 77 15
7.021554e-002 -3.068074e-001 -1.421985e+000 80 148 102
1.874981e-001 -2.933240e-001 -1.438506e+000 90 58 34
2.129283e-001 -2.911690e-001 -1.440125e+000 17 20 0
3.339837e-001 -2.741845e-001 -1.461641e+000 42 53 8
3.782643e-001 -2.740801e-001 -1.472237e+000 77 74 7
3.252483e-001 -2.828034e-001 -1.451880e+000 80 77 13
2.163164e-001 -3.054720e-001 -1.413293e+000 28 25 18
3.226450e-001 -3.055452e-001 -1.407242e+000 75 96 92
1.832090e-001 -3.249795e-001 -1.371061e+000 149 182 218
1.546572e-001 -3.363894e-001 -1.366819e+000 72 69 69
1.913206e-001 -3.298901e-001 -1.363103e+000 65 70 75
2.484216e-001 -3.328132e-001 -1.389144e+000 107 118 110
1.900522e-001 -3.388976e-001 -1.347864e+000 112 100 74
1.986105e-001 -3.471799e-001 -1.367520e+000 81 97 92
2.495389e-001 -3.442501e-001 -1.366424e+000 71 73 68
1.868336e-001 -3.557420e-001 -1.347128e+000 106 122 117
1.148454e-001 -3.757278e-001 -1.315650e+000 115 124 120
1.132933e-001 -3.808479e-001 -1.304055e+000 70 77 73
1.093127e-001 -3.835033e-001 -1.290838e+000 72 93 82
1.913605e-001 -3.845349e-001 -1.304049e+000 67 96 89
1.972801e-001 -4.043709e-001 -1.268451e+000 101 118 112
1.197077e-001 -4.140754e-001 -1.236151e+000 18 18 22
1.553742e-001 -4.112447e-001 -1.249196e+000 78 108 103
1.007663e-001 -4.215025e-001 -1.222444e+000 51 68 61
1.790558e-001 -4.110940e-001 -1.253040e+000 101 114 101
1.419445e-001 -4.181330e-001 -1.245754e+000 19 22 24
1.546442e-001 -4.168871e-001 -1.245393e+000 108 119 118
1.260518e-001 -4.221513e-001 -1.232963e+000 105 116 113
1.721466e-001 -4.195808e-001 -1.244896e+000 107 122 113
2.709023e-001 4.359114e-001 -1.737971e+000 126 172 107
4.126423e-001 3.738841e-001 -1.813860e+000 199 220 215
5.161718e-002 2.853721e-001 -1.636656e+000 233 241 246
7.970375e-002 2.809596e-001 -1.589101e+000 136 136 130
4.114183e-001 3.241881e-001 -1.821775e+000 94 111 75
5.867612e-001 3.181723e-001 -1.986919e+000 48 47 45
-4.073459e-002 -1.577699e-001 -1.380872e+000 132 168 170
3.175278e-001 -2.653432e-001 -1.466804e+000 232 244 123
3.353129e-001 -2.641836e-001 -1.455154e+000 126 134 95
3.658264e-001 -2.711825e-001 -1.454151e+000 37 38 11
1.371261e-001 -4.023907e-001 -1.264101e+000 25 25 29
2.211703e-001 4.876097e-001 -1.761164e+000 189 207 207
-2.396916e-002 4.086816e-001 -1.570761e+000 136 126 124
-2.799874e-003 3.294382e-001 -1.567904e+000 73 66 59
-1.436540e-001 2.378705e-001 -1.391886e+000 84 73 66
5.057360e-002 2.867688e-001 -1.623914e+000 234 241 245
1.203096e-001 2.833322e-001 -1.602955e+000 134 215 235
6.070676e-001 2.525209e-001 -1.975618e+000 20 16 19
4.787468e-001 2.052918e-001 -1.841003e+000 127 135 103
1.676331e-001 1.389652e-001 -1.641633e+000 17 30 27
1.818760e-001 1.228418e-001 -1.602413e+000 29 30 22
1.820161e-002 6.490464e-002 -1.462942e+000 190 87 119
-3.135662e-002 4.646312e-002 -1.420111e+000 185 86 117
1.031871e-001 5.494183e-002 -1.512599e+000 189 195 188
1.197908e-001 3.826109e-002 -1.448301e+000 126 138 126
-7.225952e-002 -1.197681e-003 -1.377441e+000 19 19 22
1.686942e-001 2.028060e-002 -1.433091e+000 177 114 73
3.426977e-002 3.442233e-003 -1.427187e+000 133 144 136
4.767716e-002 -1.401235e-002 -1.441318e+000 27 38 34
2.699620e-001 1.638640e-004 -1.506174e+000 118 14 8
1.828712e-001 -2.472919e-002 -1.454410e+000 47 42 35
6.847731e-001 -3.533168e-002 -1.988360e+000 61 51 50
2.433814e-001 -1.734613e-001 -1.491536e+000 134 90 90
8.625617e-002 -2.761171e-001 -1.432504e+000 44 60 45
1.263168e-001 -3.910191e-001 -1.287632e+000 19 24 27
-2.088721e-001 3.368642e-001 -1.394719e+000 139 135 131
4.163591e-002 2.856245e-001 -1.620062e+000 229 239 237
2.589558e-002 1.753918e-003 -1.420966e+000 184 194 185
6.225423e-002 -2.038514e-001 -1.420070e+000 44 44 38
4.297556e-002 -2.579764e-001 -1.404023e+000 85 155 101
6.302023e-002 -2.719218e-001 -1.429806e+000 45 60 41
-3.232452e-003 -2.957070e-001 -1.403539e+000 77 153 166
5.251446e-002 -2.961872e-001 -1.406491e+000 82 144 96
9.392261e-002 4.488304e-001 -1.636672e+000 178 189 179
-1.497609e-002 3.556650e-001 -1.559378e+000 87 68 55
5.310622e-003 -5.858209e-002 -1.389430e+000 94 165 120
-6.037912e-002 -9.722333e-002 -1.370960e+000 204 188 153
6.418830e-002 -2.483019e-001 -1.427363e+000 97 170 106
7.651223e-002 -2.700948e-001 -1.420558e+000 39 46 37
9.933527e-002 -2.732617e-001 -1.444354e+000 112 136 119
2.205322e-002 2.872945e-001 -1.633594e+000 231 244 244
1.216743e-001 2.401614e-002 -1.430111e+000 196 181 159
7.342149e-002 -2.111216e-001 -1.431630e+000 40 35 31
-6.857951e-002 6.896328e-002 -1.381592e+000 55 137 161
2.321168e-001 -4.852806e-002 -1.477626e+000 184 183 179
2.370590e-001 -7.514590e-002 -1.473764e+000 34 33 32
2.055480e-001 -8.559367e-002 -1.453941e+000 216 214 213
1.924369e-001 -1.222644e-001 -1.444976e+000 223 204 191
9.901196e-002 -4.242205e-001 -1.343721e+000 64 63 68
3.603605e-001 5.109724e-001 -1.727119e+000 133 147 123
2.029327e-001 -1.348474e-001 -1.454023e+000 207 183 61
2.422395e-001 -8.088061e-002 -1.483117e+000 29 25 22
2.188693e-001 -1.372005e-001 -1.459760e+000 29 25 24
3.850872e-001 4.274846e-001 -1.788037e+000 193 206 199
2.904826e-001 1.484856e-001 -1.767653e+000 45 38 2
3.067840e-001 1.130317e-001 -1.777870e+000 88 120 59
3.239519e-001 1.136003e-001 -1.777275e+000 73 107 23
3.254030e-001 1.118409e-001 -1.786339e+000 125 157 62
-5.941789e-002 6.581466e-002 -1.384141e+000 52 149 178
-1.125465e-001 -2.669449e-003 -1.331082e+000 145 151 177
3.557232e-002 8.617615e-003 -1.422290e+000 119 138 129
3.251839e-002 2.594521e-003 -1.417480e+000 183 194 188
6.908581e-001 -2.324820e-002 -1.983278e+000 89 79 77
1.939710e-001 -2.071665e-002 -1.449779e+000 119 118 116
6.404150e-001 -4.453896e-002 -1.944228e+000 132 138 139
6.430818e-001 -4.368511e-002 -1.947736e+000 118 124 125
-6.084135e-002 -9.567724e-002 -1.372258e+000 207 165 146
1.882209e-001 -4.092857e-002 -1.446671e+000 20 17 16
2.157079e-001 -5.379870e-002 -1.464798e+000 177 180 177
2.238082e-001 -6.895807e-002 -1.468901e+000 14 14 12
3.002504e-001 -7.565691e-002 -1.529592e+000 86 83 85
2.038100e-001 -8.622852e-002 -1.458903e+000 210 210 201
2.406931e-001 -2.878433e-001 -1.423560e+000 184 177 64
-2.156991e-002 3.678393e-001 -1.560932e+000 66 59 51
5.545443e-001 2.133108e-001 -1.929491e+000 102 101 88
3.270735e-001 1.566815e-001 -1.786148e+000 174 194 84
5.314595e-001 1.472129e-001 -1.931868e+000 59 52 38
3.052363e-001 1.090069e-001 -1.772008e+000 90 133 64
2.605160e-001 -4.566361e-002 -1.499103e+000 6 6 10
2.490524e-001 -4.519688e-002 -1.491450e+000 212 219 213
2.855696e-001 -7.502592e-002 -1.520566e+000 13 17 13
2.018625e-001 -1.172430e-001 -1.449461e+000 126 58 51
5.706847e-003 3.946910e-001 -1.617977e+000 156 152 141
-2.625127e-002 2.183480e-001 -1.509369e+000 58 179 209
1.756056e-002 1.945704e-001 -1.489503e+000 210 209 175
-1.404597e-001 9.273352e-002 -1.297175e+000 170 126 111
3.552963e-002 -6.914919e-003 -1.420335e+000 100 117 109
1.938394e-001 -6.236791e-002 -1.444912e+000 27 26 26
-6.359324e-002 -2.326327e-001 -1.358617e+000 189 185 149
2.424912e-001 -1.726962e-001 -1.480618e+000 126 104 100
2.323858e-001 -6.570963e-002 -1.489626e+000 181 182 177
2.146539e-001 -7.613941e-002 -1.464163e+000 202 207 201
2.987178e-001 -8.626279e-002 -1.524073e+000 201 202 199
2.212158e-001 -1.141277e-001 -1.473822e+000 153 151 150
6.404079e-002 -1.678571e-001 -1.429803e+000 106 164 96
-4.600100e-002 -2.296518e-001 -1.383567e+000 167 181 140
3.766034e-003 -6.024492e-002 -1.390459e+000 77 160 114
4.109030e-001 3.307542e-001 -1.797019e+000 135 152 127
-1.648772e-002 1.589675e-001 -1.445751e+000 213 170 163
4.791713e-001 2.277688e-001 -1.813538e+000 166 178 165
1.306143e-002 6.827159e-002 -1.467475e+000 177 87 114
-5.322668e-002 4.624844e-002 -1.395146e+000 56 145 168
-1.210530e-002 5.600465e-002 -1.438983e+000 62 147 167
6.540466e-002 1.044092e-002 -1.449664e+000 75 75 67
1.773251e-001 2.203556e-002 -1.449652e+000 168 103 64
1.620516e-001 1.634462e-002 -1.428668e+000 153 85 40
1.844198e-001 1.579506e-002 -1.455464e+000 156 90 51
1.940611e-001 -2.236365e-002 -1.450596e+000 74 75 72
2.178444e-001 -1.849083e-002 -1.470948e+000 58 60 59
1.927239e-001 -3.775456e-002 -1.446638e+000 150 150 148
1.887563e-001 -4.178224e-002 -1.445759e+000 46 46 41
2.909304e-001 -3.028841e-002 -1.528309e+000 206 208 202
2.152657e-001 -6.751742e-002 -1.464903e+000 25 23 23
2.461875e-001 -6.323576e-002 -1.489085e+000 72 76 75
2.381116e-001 -7.518120e-002 -1.479987e+000 60 56 57
2.597463e-001 -8.185906e-002 -1.494780e+000 193 198 193
3.058642e-001 -8.111397e-002 -1.532182e+000 93 84 81
2.121156e-001 -9.647137e-002 -1.458079e+000 159 164 158
3.019293e-001 -8.784679e-002 -1.534509e+000 71 71 72
2.087623e-001 -1.025785e-001 -1.456700e+000 172 173 170
2.525368e-001 -1.713392e-001 -1.487743e+000 163 120 121
7.425856e-002 -2.621628e-001 -1.426354e+000 51 88 58
2.904212e-001 -2.627747e-001 -1.462332e+000 154 123 37
3.348410e-001 -2.601184e-001 -1.462654e+000 176 188 137
3.638495e-001 -2.752230e-001 -1.469211e+000 19 20 0
3.473508e-001 -3.132408e-001 -1.401030e+000 56 62 59
8.109244e-002 -3.691911e-001 -1.271318e+000 41 52 46
8.942545e-002 -3.760118e-001 -1.272897e+000 140 143 136
5.078896e-001 -3.624411e-001 -1.344155e+000 148 165 155
5.032304e-001 -3.696052e-001 -1.342226e+000 51 75 67
4.702799e-001 -3.825919e-001 -1.306682e+000 94 117 108
4.436033e-001 -3.849338e-001 -1.295300e+000 26 27 20
2.697112e-001 -4.095520e-001 -1.256048e+000 70 100 86
4.409876e-001 -3.874439e-001 -1.289064e+000 100 123 113
4.545482e-001 -3.934796e-001 -1.310283e+000 98 125 118
2.711822e-001 -1.381894e-002 -1.507531e+000 112 18 12
2.899307e-001 -5.936513e-002 -1.524490e+000 42 40 39
2.355601e-001 -9.420118e-002 -1.481684e+000 210 211 207
2.914997e-001 -9.843262e-002 -1.521847e+000 26 23 22
2.690768e-001 -1.793714e-001 -1.500552e+000 200 185 70
4.259017e-001 3.277939e-001 -1.817624e+000 153 173 162
1.148592e-001 9.227235e-002 -1.436105e+000 50 141 165
1.141204e-002 -1.899122e-002 -1.395333e+000 115 127 114
2.675009e-001 -2.743593e-001 -1.492826e+000 70 64 3
2.196682e-001 -5.841996e-002 -1.468263e+000 27 23 24
2.806162e-001 -1.019137e-001 -1.513370e+000 217 217 215
3.428624e-001 1.714466e-001 -1.824607e+000 199 234 94
6.737319e-002 1.520697e-002 -1.435045e+000 143 148 141
-2.466681e-001 3.856825e-001 -1.424036e+000 138 124 127
2.285722e-001 4.798838e-001 -1.749454e+000 160 177 168
2.026811e-001 4.585430e-001 -1.698332e+000 170 177 169
3.847223e-001 4.811155e-001 -1.752602e+000 133 140 126
5.285018e-001 5.436877e-001 -1.982923e+000 103 99 95
1.851765e-001 4.228610e-001 -1.624043e+000 155 159 157
4.011357e-001 4.638209e-001 -1.765493e+000 171 181 163
3.205012e-001 4.295563e-001 -1.741851e+000 105 116 126
3.259322e-001 4.284345e-001 -1.752774e+000 44 56 65
3.316133e-001 4.257356e-001 -1.754116e+000 62 73 79
2.260948e-002 3.438002e-001 -1.608625e+000 93 86 75
3.926256e-001 4.030803e-001 -1.793478e+000 176 200 184
-2.089366e-001 2.244064e-001 -1.371933e+000 127 120 117
4.532779e-001 3.817917e-001 -1.793436e+000 172 179 168
4.304473e-001 3.145171e-001 -1.802707e+000 146 167 150
3.065944e-001 2.691605e-001 -1.684444e+000 163 50 77
4.388604e-001 2.943445e-001 -1.811178e+000 163 182 163
3.386763e-001 2.259303e-001 -1.665891e+000 73 118 50
4.801001e-001 2.443621e-001 -1.887540e+000 136 136 131
3.418425e-001 1.984993e-001 -1.836714e+000 76 112 16
5.121826e-001 2.357282e-001 -1.895569e+000 183 178 170
4.788705e-001 2.088886e-001 -1.824265e+000 134 149 117
1.005603e-001 1.068562e-001 -1.556784e+000 193 88 124
3.354517e-001 1.691251e-001 -1.807991e+000 200 232 100
1.047305e-001 1.002067e-001 -1.561540e+000 171 79 104
3.270405e-001 1.601167e-001 -1.797286e+000 158 177 79
5.791030e-001 2.159121e-001 -1.928972e+000 203 204 196
5.679063e-001 2.071123e-001 -1.919330e+000 191 189 176
5.199805e-001 1.535932e-001 -1.922624e+000 179 170 163
5.297355e-001 1.395617e-001 -1.918346e+000 40 25 16
5.451432e-001 1.399857e-001 -1.933704e+000 164 172 156
2.075310e-001 4.347859e-002 -1.462115e+000 160 131 116
5.410855e-001 1.235010e-001 -1.937419e+000 153 146 135
2.204131e-002 -1.584832e-002 -1.406457e+000 170 178 170
1.846630e-001 1.102213e-002 -1.447004e+000 109 59 29
2.906217e-001 1.065104e-002 -1.525248e+000 102 1 1
2.610292e-001 3.649458e-003 -1.512237e+000 203 27 22
2.813985e-001 7.925972e-003 -1.523125e+000 87 10 5
2.711029e-001 2.548573e-005 -1.511801e+000 167 34 28
2.743943e-001 -4.389230e-003 -1.514255e+000 180 26 22
2.105647e-001 -2.140669e-002 -1.463290e+000 218 220 219
2.623756e-001 -1.203110e-002 -1.785640e+000 56 95 41
2.068169e-001 -2.655783e-002 -1.463994e+000 208 215 208
2.211850e-001 -2.691642e-002 -1.469870e+000 53 53 53
2.892417e-001 -8.619508e-003 -1.527209e+000 102 2 2
2.970802e-001 -1.998682e-002 -1.531788e+000 139 16 8
1.890284e-001 -5.344767e-002 -1.448573e+000 76 75 77
2.916656e-001 -3.006065e-002 -1.526653e+000 196 197 195
1.973013e-001 -5.917687e-002 -1.455777e+000 148 150 146
2.161602e-001 -6.681433e-002 -1.463065e+000 11 15 14
2.505757e-001 -6.452739e-002 -1.483477e+000 67 71 70
2.862053e-001 -6.049577e-002 -1.521359e+000 181 181 180
2.563692e-001 -7.026143e-002 -1.494851e+000 209 209 209
2.442665e-001 -7.359774e-002 -1.487331e+000 216 219 216
2.903737e-001 -7.046884e-002 -1.522852e+000 144 149 148
2.494843e-001 -8.582352e-002 -1.487281e+000 209 209 206
2.917458e-001 -7.714743e-002 -1.517279e+000 81 87 84
2.265054e-001 -9.489784e-002 -1.471041e+000 176 181 175
2.963461e-001 -9.814869e-002 -1.527218e+000 216 220 221
2.317438e-001 -1.176019e-001 -1.474204e+000 141 140 141
2.447195e-001 -1.152341e-001 -1.476943e+000 205 206 208
2.556688e-001 -1.114881e-001 -1.491626e+000 151 151 150
6.399065e-001 -6.949756e-002 -2.000011e+000 103 111 105
4.697997e-002 -2.076494e-001 -1.407482e+000 31 59 33
-4.809234e-002 -2.399736e-001 -1.354512e+000 182 128 121
3.130496e-001 -1.458407e-001 -1.532063e+000 61 43 38
2.741276e-001 -1.600691e-001 -1.514075e+000 139 111 109
3.135313e-001 -1.549113e-001 -1.523884e+000 100 57 58
2.338358e-001 -1.740370e-001 -1.472091e+000 73 69 71
2.333055e-001 -1.781929e-001 -1.473047e+000 96 76 81
2.235697e-001 -2.745198e-001 -1.460726e+000 146 109 6
2.298642e-001 -2.731787e-001 -1.437056e+000 212 196 95
2.649502e-001 -2.718785e-001 -1.468121e+000 141 107 34
3.818650e-001 -2.521550e-001 -1.474185e+000 190 201 132
2.218243e-001 -3.202137e-001 -1.390020e+000 30 28 19
2.036342e-001 -3.496149e-001 -1.352600e+000 100 120 112
3.720875e-001 -2.905516e-001 -1.388191e+000 65 92 86
3.690686e-001 -3.063230e-001 -1.427087e+000 85 93 98
3.285627e-001 -3.386194e-001 -1.391407e+000 117 132 127
3.525924e-001 -3.362395e-001 -1.381414e+000 106 112 100
4.587379e-001 3.299016e-001 -1.803915e+000 111 113 96
3.659277e-001 1.504737e-001 -1.830896e+000 208 241 107
2.928456e-001 -4.843649e-003 -1.519113e+000 103 0 0
2.986229e-001 -2.255792e-002 -1.529860e+000 84 11 7
2.797921e-001 -3.574131e-002 -1.515845e+000 221 225 223
2.150440e-001 -5.640585e-002 -1.462697e+000 214 219 216
2.438924e-001 -5.856495e-002 -1.488116e+000 12 16 16
2.225739e-001 -6.139510e-002 -1.491989e+000 23 23 23
2.950565e-001 -5.284797e-002 -1.528824e+000 219 220 219
2.664601e-001 -6.412968e-002 -1.505383e+000 210 216 212
2.861966e-001 -7.334071e-002 -1.519439e+000 27 29 27
1.876509e-001 -1.215829e-001 -1.451431e+000 208 203 196
3.473357e-002 -2.425190e-001 -1.402421e+000 84 149 113
6.300467e-002 -3.034781e-001 -1.412039e+000 51 93 62
1.931575e-001 -3.479222e-001 -1.364340e+000 90 106 99
3.123791e-001 -3.339474e-001 -1.398474e+000 42 51 53
1.309921e-001 -3.899884e-001 -1.276568e+000 17 25 24
1.026990e-001 -4.058050e-001 -1.229254e+000 112 112 107
2.239237e-001 4.544365e-001 -1.640028e+000 175 184 180
3.611400e-001 4.963381e-001 -1.757533e+000 149 165 157
1.036760e-002 3.941100e-001 -1.608628e+000 146 139 131
4.154154e-001 3.309148e-001 -1.794208e+000 140 160 134
5.035308e-001 2.092365e-001 -1.889133e+000 138 135 122
5.902158e-001 2.382142e-001 -1.943125e+000 138 131 126
5.608277e-001 2.204725e-001 -1.915063e+000 199 208 197
-4.297567e-002 3.786988e-002 -1.391187e+000 1 68 103
8.813895e-003 4.917336e-002 -1.451738e+000 184 180 191
-3.561234e-003 2.582602e-002 -1.375817e+000 47 57 49
2.095281e-001 1.656248e-002 -1.460034e+000 157 93 59
-4.704476e-002 -1.091159e-001 -1.368391e+000 203 186 152
2.258846e-001 -4.047073e-002 -1.475143e+000 175 176 178
2.984672e-001 -2.534209e-002 -1.530542e+000 62 11 9
2.335518e-001 -5.482373e-002 -1.477471e+000 197 200 193
2.831191e-001 -7.131221e-002 -1.524314e+000 25 25 27
2.806606e-001 -1.023012e-001 -1.511067e+000 216 217 211
-2.091272e-002 -2.521398e-001 -1.334888e+000 192 94 114
6.438538e-002 -2.739106e-001 -1.411683e+000 37 64 42
3.654411e-001 -2.678302e-001 -1.438132e+000 37 43 9
3.814861e-001 -2.676828e-001 -1.473862e+000 143 165 57
2.103086e-001 4.621638e-001 -1.620679e+000 138 135 120
-2.403810e-002 3.642862e-001 -1.567581e+000 83 71 64
-8.482212e-002 1.512119e-001 -1.406212e+000 195 205 167
-3.878126e-004 1.621610e-001 -1.467918e+000 193 217 179
-6.568586e-002 1.359363e-001 -1.396313e+000 182 210 164
5.263146e-001 2.311125e-001 -1.893314e+000 107 87 81
6.241867e-001 2.354675e-001 -1.957930e+000 202 203 207
4.986407e-001 1.724256e-001 -1.862535e+000 88 107 58
2.035233e-001 -5.006891e-002 -1.454492e+000 24 22 28
-9.037757e-004 4.266100e-001 -1.583707e+000 138 129 122
2.247696e-001 4.075895e-001 -1.684272e+000 221 239 250
2.662290e-001 2.511728e-001 -1.668348e+000 119 173 92
1.579477e-001 1.574185e-001 -1.648104e+000 22 23 20
4.573973e-001 2.309136e-001 -1.876247e+000 162 175 165
3.632908e-001 2.017969e-001 -1.847149e+000 22 46 18
1.826178e-001 -1.224190e-002 -1.424009e+000 206 208 205
