ply
format ascii 1.0
element face 0
property list uchar int vertex_indices
element vertex 127
property float x
property float y
property float z
property uchar diffuse_red
property uchar diffuse_green
property uchar diffuse_blue
end_header
-4.795027e+000 1.044857e+000 1.459737e+001 155 158 149
-9.005521e+000 -1.398127e+000 1.859944e+001 144 144 134
-9.887890e+000 -2.362209e+000 1.997510e+001 154 150 139
-2.782983e+000 1.256947e+000 1.304370e+001 173 180 164
-3.768162e+001 -1.939385e+001 5.548684e+001 47 32 32
-3.882246e+001 -1.987750e+001 6.011192e+001 125 121 117
-4.824430e+000 -5.650823e-001 1.623316e+001 153 172 183
-9.243998e+000 -4.096246e+000 2.023215e+001 151 143 141
-8.149560e+000 -3.441070e+000 1.926266e+001 141 141 137
-4.366673e+001 -2.659882e+001 6.856904e+001 144 139 136
-4.161107e+001 -2.835622e+001 6.672030e+001 156 142 137
-1.754321e+000 4.351435e-001 1.224320e+001 186 192 190
-1.627742e+000 5.067230e-001 1.221724e+001 98 95 87
-3.545201e+001 -2.554706e+001 5.861116e+001 104 86 81
-1.459898e+000 1.806418e-001 1.219892e+001 161 177 161
-6.513342e+000 -7.628886e+000 2.272597e+001 182 96 119
-4.621263e+000 -5.819113e+000 2.086843e+001 145 149 137
-1.291262e+001 -1.715645e+001 3.876261e+001 11 65 76
-6.380916e+000 -8.654919e+000 2.552046e+001 185 194 184
-7.689860e+000 -1.091915e+001 2.938163e+001 112 124 114
-1.162805e+001 -1.637941e+001 3.567445e+001 117 42 58
-4.097091e+000 -6.645318e+000 2.623099e+001 135 68 29
-6.392969e+000 -9.771417e+000 2.670623e+001 152 168 157
-7.827388e+000 -1.212012e+001 3.049468e+001 171 185 171
-5.277715e+000 -9.056633e+000 3.115810e+001 221 196 178
-5.123468e+000 -1.300970e+001 2.521514e+001 134 137 135
-7.264642e+000 -1.783573e+001 3.147903e+001 127 186 192
-3.402510e-001 -6.343554e+000 2.124118e+001 123 93 91
-2.288700e-001 -6.059583e+000 2.098865e+001 161 129 121
-2.147189e+000 -1.079520e+001 2.251359e+001 27 51 33
-2.366347e+000 -1.220466e+001 2.399725e+001 18 73 30
-1.158738e+000 -9.233665e+000 1.991677e+001 39 42 32
-1.271625e+000 -9.800959e+000 2.068632e+001 64 93 57
-1.250901e+000 -1.014221e+001 2.082954e+001 86 117 92
-9.081395e-001 -9.342273e+000 1.964914e+001 94 120 99
4.000618e+000 -9.397658e+000 3.154573e+001 120 118 17
6.021902e+000 -8.902962e+000 3.485665e+001 37 57 0
8.404649e+000 -9.780939e+000 4.100676e+001 56 134 48
-9.738999e-001 -1.415376e+001 2.056364e+001 126 134 138
-4.521820e-001 -1.357212e+001 1.804973e+001 82 69 71
-5.741499e+000 -9.727744e+000 2.565754e+001 85 170 120
-2.528780e+000 -6.448176e+000 2.421216e+001 56 61 58
-2.304991e+000 -7.436820e+000 2.498963e+001 222 220 217
-2.411705e+000 -1.171507e+001 2.374093e+001 30 57 36
-6.104982e-001 -9.463480e+000 1.954847e+001 62 140 99
-9.355071e+000 -2.380338e+000 1.940082e+001 127 118 111
-2.852001e+001 -1.659690e+001 5.102990e+001 223 228 231
-6.244768e+000 -2.783081e+000 1.632753e+001 127 112 97
-6.443644e+000 -1.201313e+001 2.873284e+001 55 104 75
-1.914793e+000 -8.409794e+000 2.627415e+001 213 212 211
-3.941692e-001 -6.805133e+000 2.205546e+001 178 131 127
-4.868613e+000 -8.677062e+000 3.017979e+001 209 211 208
-5.645713e+000 -9.849719e+000 2.546758e+001 94 183 129
-6.943595e+000 -1.408231e+001 2.824677e+001 184 170 132
-2.588525e+000 -8.804213e+000 2.675506e+001 208 204 198
-7.707023e-001 -8.411112e+000 2.422470e+001 60 39 25
-7.155010e-001 -9.869538e+000 2.035603e+001 63 138 93
-1.815216e+001 -1.301769e+001 3.540226e+001 66 44 30
-8.048240e+000 -1.162314e+001 3.092832e+001 68 83 77
-4.936387e+000 -1.061807e+001 2.548597e+001 90 177 118
-2.576938e+000 8.166338e-001 1.216627e+001 172 178 170
-2.403161e+001 -1.499502e+001 4.395179e+001 57 53 50
-4.557141e+000 -6.829633e-001 1.760322e+001 86 121 68
-6.804034e+000 -9.621059e+000 2.692755e+001 176 187 173
-9.705564e-001 -9.734322e+000 2.035013e+001 109 136 115
-2.354955e+000 -8.342606e+000 2.653596e+001 194 194 190
-1.800349e+000 -8.079661e+000 2.517541e+001 209 210 205
1.545115e+000 -2.104584e+000 1.485909e+001 34 66 7
4.431329e+000 -2.785682e+000 2.087095e+001 121 118 117
-1.000906e+001 -2.902962e+000 2.005545e+001 139 132 128
-8.764989e+000 -2.330906e+000 1.864538e+001 126 122 113
-2.000391e+000 -9.691921e+000 2.069728e+001 31 32 26
-5.396284e+000 -8.920708e+000 2.479303e+001 12 11 9
-4.222402e+000 -8.308927e+000 2.877447e+001 97 93 92
-2.728752e+000 -5.435629e+000 2.341108e+001 189 163 160
-4.450138e+001 -1.806515e+001 5.947687e+001 161 151 149
-9.511508e+000 -3.360167e+000 2.021606e+001 78 71 58
-4.028050e+001 -1.966044e+001 5.875412e+001 150 140 139
-4.525114e+001 -2.775290e+001 6.968476e+001 138 123 123
-4.141112e+000 -4.333414e+000 1.741247e+001 175 82 113
-1.087562e+001 -1.277537e+001 3.203723e+001 17 114 146
-7.305888e+000 -9.013213e+000 2.473219e+001 208 115 146
-5.160022e+000 -8.232572e+000 3.088587e+001 138 74 40
-1.297567e+001 -1.684145e+001 3.873598e+001 118 185 195
-1.215994e+001 -1.615546e+001 3.805591e+001 24 28 21
-4.141125e+000 -8.228072e+000 2.889521e+001 57 57 56
-1.627468e+000 -4.812276e+000 2.125945e+001 213 212 207
-2.459815e+000 -7.733975e+000 2.551019e+001 49 50 45
1.153798e+000 -2.286045e+000 1.372062e+001 72 105 56
-1.598612e+000 -7.687289e+000 2.441360e+001 207 200 200
1.676976e+000 -2.186482e+000 1.510276e+001 87 145 68
1.331225e+000 -1.040648e+001 2.817098e+001 165 174 94
3.718150e+000 -2.255559e+001 4.906606e+001 30 48 45
4.191516e+000 -3.157097e+001 6.382918e+001 60 61 61
-6.453978e+000 -7.485697e+000 2.258827e+001 183 73 107
-9.870269e+000 -1.380247e+001 3.508778e+001 209 216 211
-1.505584e+000 -1.169222e+001 2.272303e+001 45 67 41
1.986308e+000 -1.170593e+001 3.050704e+001 170 149 15
4.766951e+000 -3.906409e+001 7.766612e+001 33 38 34
-4.785938e+000 2.555925e-001 1.404341e+001 193 211 211
-4.958987e+000 -4.073152e-001 1.562222e+001 189 219 233
-8.767350e+000 -1.059171e+001 2.780934e+001 188 85 115
-1.477598e+000 -1.047766e+001 2.170613e+001 53 103 61
-1.012338e+000 -1.030634e+001 2.080066e+001 33 59 38
-4.188809e+000 -8.355564e+000 2.911900e+001 15 14 12
-1.143971e+000 -5.304101e+000 2.030172e+001 216 217 212
-1.857198e+000 -6.210772e+000 2.260082e+001 54 52 58
-1.871946e+000 -6.219039e+000 2.263153e+001 200 201 195
-1.459056e+000 -6.085973e+000 2.174162e+001 180 140 137
-1.826482e+000 -6.208174e+000 2.252548e+001 22 22 23
-1.809411e+000 -6.196532e+000 2.248148e+001 211 212 208
-1.730558e+000 -6.170956e+000 2.229732e+001 217 219 212
-1.719380e+000 -6.167836e+000 2.227240e+001 22 24 23
-1.505917e+000 -6.101506e+000 2.183633e+001 186 145 142
-2.054079e+000 -5.248797e+000 1.685463e+001 219 227 227
-1.964195e+000 -5.292304e+000 1.680830e+001 221 224 225
-2.390056e+000 -7.087372e+000 2.288094e+001 109 183 152
1.004113e+000 1.045209e+000 8.947839e-002 0 255 0
1.017876e+000 1.064075e+000 4.526649e-002 255 255 0
5.548833e-001 -1.515455e+000 1.216755e+000 255 0 0
5.681804e-001 -1.510938e+000 1.168768e+000 255 255 0
-1.685242e+000 -6.156398e+000 2.219801e+001 0 255 0
-1.667845e+000 -6.147210e+000 2.215204e+001 255 255 0
-1.745844e-001 -1.317346e+001 7.595652e+001 255 0 0
-1.760989e-001 -1.316758e+001 7.590689e+001 255 255 0
8.871835e+000 3.316589e+000 9.847509e+000 0 255 0
8.835029e+000 3.298560e+000 9.876151e+000 255 255 0
