ply
format ascii 1.0
element face 0
property list uchar int vertex_indices
element vertex 149
property float x
property float y
property float z
property uchar diffuse_red
property uchar diffuse_green
property uchar diffuse_blue
end_header
-4.793364e+000 1.118992e+000 1.458928e+001 155 158 149
-9.028975e+000 -1.346703e+000 1.858978e+001 144 144 134
-9.917192e+000 -2.319166e+000 1.996371e+001 154 150 139
-2.773425e+000 1.338621e+000 1.303443e+001 173 180 164
-3.770714e+001 -1.941062e+001 5.546295e+001 47 32 32
-3.884914e+001 -1.989527e+001 6.008815e+001 125 121 117
-4.832556e+000 -4.943070e-001 1.623126e+001 153 172 183
-9.277330e+000 -4.058022e+000 2.022308e+001 151 143 141
-8.178739e+000 -3.395691e+000 1.925684e+001 141 141 137
-4.369017e+001 -2.661627e+001 6.854680e+001 144 139 136
-4.163465e+001 -2.837357e+001 6.669765e+001 156 142 137
-1.742759e+000 5.245509e-001 1.223567e+001 186 192 190
-1.615613e+000 5.971039e-001 1.221311e+001 98 95 87
-3.547863e+001 -2.556492e+001 5.858657e+001 104 86 81
-1.451023e+000 2.809266e-001 1.218991e+001 161 177 161
-6.542086e+000 -7.612347e+000 2.272242e+001 182 96 119
-4.647950e+000 -5.792462e+000 2.085804e+001 145 149 137
-1.295011e+001 -1.717935e+001 3.873775e+001 11 65 76
-6.402140e+000 -8.643262e+000 2.552703e+001 185 194 184
-7.722211e+000 -1.092511e+001 2.937000e+001 112 124 114
-1.166371e+001 -1.639867e+001 3.565284e+001 117 42 58
-4.118459e+000 -6.631034e+000 2.623074e+001 135 68 29
-4.001201e+000 -6.670695e+000 2.665740e+001 164 129 100
-6.421757e+000 -9.770427e+000 2.669887e+001 152 168 157
-7.859533e+000 -1.213021e+001 3.048145e+001 171 185 171
-5.304397e+000 -9.058881e+000 3.115229e+001 221 196 178
-2.402941e+000 -4.902453e+000 2.233578e+001 119 1 1
-2.676141e+000 -5.414849e+000 2.336173e+001 96 13 12
-3.104561e+000 -6.224375e+000 2.501131e+001 38 39 37
-2.829420e+000 -5.778819e+000 2.411919e+001 132 123 122
-3.003216e+000 -6.339391e+000 2.502512e+001 219 223 220
-2.665068e+000 -5.835581e+000 2.347487e+001 211 216 212
-2.256430e+000 -5.231566e+000 2.282541e+001 116 7 5
-2.361841e+000 -5.509266e+000 2.309270e+001 119 5 3
-2.549391e+000 -5.874119e+000 2.294693e+001 32 30 32
-3.381783e+000 -7.474636e+000 2.666426e+001 18 15 12
-1.843964e+000 -5.209080e+000 2.224018e+001 215 214 210
-2.004375e+000 -5.805854e+000 2.308626e+001 90 93 92
-1.860027e+000 -6.896382e+000 2.382218e+001 199 201 198
-2.018765e+000 -7.302899e+000 2.431474e+001 190 192 187
-1.865155e+000 -7.218039e+000 2.415932e+001 64 64 62
-1.103498e+000 -5.714462e+000 2.164063e+001 33 32 32
-2.051217e+000 -7.733532e+000 2.503939e+001 16 18 15
-1.486652e+000 -6.396662e+000 2.297434e+001 146 144 143
-1.446228e+000 -6.689337e+000 2.296334e+001 18 21 18
-1.880381e+000 -7.823680e+000 2.494646e+001 93 92 90
-1.640356e+000 -7.552732e+000 2.444273e+001 160 156 154
-5.146449e+000 -1.301627e+001 2.520611e+001 134 137 135
-7.292275e+000 -1.785393e+001 3.146116e+001 127 186 192
-3.429393e-001 -6.313671e+000 2.124998e+001 123 93 91
-2.308379e-001 -6.027549e+000 2.099778e+001 161 129 121
-3.150772e-001 -6.635649e+000 2.200993e+001 172 124 122
-5.020389e-001 -7.026017e+000 2.246849e+001 160 119 113
-8.718573e-001 -8.372587e+000 2.430779e+001 118 99 98
-7.694498e-001 -8.564687e+000 2.415786e+001 34 17 0
-2.158188e+000 -1.078982e+001 2.251463e+001 27 51 33
-2.379646e+000 -1.220586e+001 2.399467e+001 18 73 30
-1.162690e+000 -9.216506e+000 1.992423e+001 39 42 32
-1.277143e+000 -9.787780e+000 2.069189e+001 64 93 57
-1.256619e+000 -1.013066e+001 2.083445e+001 86 117 92
-9.107877e-001 -9.324807e+000 1.965706e+001 94 120 99
3.991192e+000 -9.395302e+000 3.154734e+001 120 118 17
6.010967e+000 -8.902701e+000 3.485833e+001 37 57 0
8.394071e+000 -9.785852e+000 4.100758e+001 56 134 48
-9.808847e-001 -1.415206e+001 2.056351e+001 126 134 138
-4.552682e-001 -1.356435e+001 1.805445e+001 82 69 71
-5.761287e+000 -9.723315e+000 2.566030e+001 85 170 120
-2.629329e+000 -6.295909e+000 2.400456e+001 220 221 215
-2.323087e+000 -6.536214e+000 2.439252e+001 56 61 58
-2.198910e+000 -6.724194e+000 2.391121e+001 201 204 198
-2.319160e+000 -7.422127e+000 2.499237e+001 222 220 217
-1.419480e+000 -7.040419e+000 2.363661e+001 211 210 207
-2.417502e+000 -1.171929e+001 2.374048e+001 30 57 36
-6.119466e-001 -9.445895e+000 1.955666e+001 62 140 99
-9.383412e+000 -2.334151e+000 1.939085e+001 127 118 111
-2.855472e+001 -1.661540e+001 5.100361e+001 223 228 231
-6.265379e+000 -2.721354e+000 1.632881e+001 127 112 97
-1.249060e+001 -1.353439e+001 3.445957e+001 54 135 164
-3.036305e+000 -6.135686e+000 2.439080e+001 38 34 31
-6.472099e+000 -1.202121e+001 2.872219e+001 55 104 75
-1.928831e+000 -8.401050e+000 2.627558e+001 213 212 211
-3.982945e-001 -6.779572e+000 2.206316e+001 178 131 127
-4.893982e+000 -8.676801e+000 3.017517e+001 209 211 208
-5.671304e+000 -9.844347e+000 2.546507e+001 94 183 129
-6.972161e+000 -1.409433e+001 2.823266e+001 184 170 132
-2.605036e+000 -8.798182e+000 2.675505e+001 208 204 198
-7.789362e-001 -8.397618e+000 2.422890e+001 60 39 25
-7.116561e-001 -9.864734e+000 2.035627e+001 63 138 93
-1.819321e+001 -1.302988e+001 3.537536e+001 66 44 30
-4.855637e+000 -5.282756e+000 1.994957e+001 215 225 235
-1.136621e+001 -1.609090e+001 3.567051e+001 16 15 17
-8.081138e+000 -1.163250e+001 3.091526e+001 68 83 77
-4.955404e+000 -1.062273e+001 2.548043e+001 90 177 118
-2.566420e+000 9.064465e-001 1.216012e+001 172 178 170
-2.406926e+001 -1.501192e+001 4.392436e+001 57 53 50
-4.566751e+000 -6.186450e-001 1.760150e+001 86 121 68
-6.834182e+000 -9.619917e+000 2.691948e+001 176 187 173
-1.262036e+000 -4.857581e+000 2.081020e+001 204 198 197
-1.413047e+000 -5.357206e+000 2.173314e+001 161 158 158
-1.064109e+000 -4.912181e+000 2.061311e+001 201 199 194
-1.523547e+000 -7.135432e+000 2.351276e+001 53 51 47
-9.744997e-001 -9.719859e+000 2.035655e+001 109 136 115
-2.370617e+000 -8.334381e+000 2.653679e+001 194 194 190
-1.812948e+000 -8.067568e+000 2.517809e+001 209 210 205
1.556500e+000 -2.033167e+000 1.486713e+001 34 66 7
4.418422e+000 -2.746401e+000 2.087749e+001 121 118 117
-1.004020e+001 -2.861582e+000 2.004398e+001 139 132 128
-8.791787e+000 -2.280542e+000 1.863716e+001 126 122 113
-2.008824e+000 -9.679263e+000 2.070202e+001 31 32 26
-5.421373e+000 -8.913381e+000 2.478953e+001 12 11 9
-4.245391e+000 -8.305233e+000 2.877162e+001 97 93 92
-1.115346e+000 -5.086863e+000 2.057907e+001 55 59 53
-9.299579e-001 -5.621263e+000 2.089319e+001 208 207 205
-2.742905e+000 -5.408938e+000 2.341523e+001 189 163 160
-4.452143e+001 -1.808148e+001 5.945634e+001 161 151 149
-9.543521e+000 -3.319728e+000 2.020595e+001 78 71 58
-4.030488e+001 -1.967740e+001 5.873109e+001 150 140 139
-4.527334e+001 -2.776985e+001 6.966307e+001 138 123 123
-4.155533e+000 -4.283364e+000 1.742098e+001 175 82 113
-1.091332e+001 -1.278757e+001 3.201839e+001 17 114 146
-7.337506e+000 -9.006524e+000 2.472430e+001 208 115 146
-5.186477e+000 -8.232049e+000 3.088095e+001 138 74 40
-1.301211e+001 -1.686220e+001 3.871367e+001 118 185 195
-1.219615e+001 -1.617567e+001 3.803470e+001 24 28 21
-4.163941e+000 -8.224263e+000 2.889249e+001 57 57 56
-1.634828e+000 -4.775918e+000 2.126685e+001 213 212 207
-2.474972e+000 -7.721615e+000 2.551212e+001 49 50 45
1.169218e+000 -2.210204e+000 1.373139e+001 72 105 56
-1.609750e+000 -7.671948e+000 2.441745e+001 207 200 200
1.687548e+000 -2.116527e+000 1.511077e+001 87 145 68
1.322722e+000 -1.040389e+001 2.817203e+001 165 174 94
3.701968e+000 -2.257595e+001 4.905749e+001 30 48 45
4.175142e+000 -3.159238e+001 6.381929e+001 60 61 61
-6.482465e+000 -7.468169e+000 2.258510e+001 183 73 107
-9.905301e+000 -1.381893e+001 3.507044e+001 209 216 211
-1.514806e+000 -1.168922e+001 2.272340e+001 45 67 41
1.976333e+000 -1.170871e+001 3.050626e+001 170 149 15
4.751621e+000 -3.908440e+001 7.765654e+001 33 38 34
-4.787123e+000 3.363992e-001 1.403884e+001 193 211 211
-4.966096e+000 -3.336837e-001 1.561974e+001 189 219 233
-8.802538e+000 -1.059483e+001 2.779595e+001 188 85 115
-1.485270e+000 -1.046907e+001 2.170933e+001 53 103 61
-1.017218e+000 -1.029503e+001 2.080565e+001 33 59 38
-4.211850e+000 -8.352527e+000 2.911601e+001 15 14 12
-1.148002e+000 -5.266957e+000 2.031108e+001 216 217 212
1.027772e+000 1.166471e+000 6.748136e-002 0 255 0
1.041551e+000 1.185493e+000 2.334192e-002 255 255 0
5.854763e-001 -1.406267e+000 1.196119e+000 255 0 0
5.988235e-001 -1.401597e+000 1.148160e+000 255 255 0
