ply
format ascii 1.0
element face 0
property list uchar int vertex_indices
element vertex 150
property float x
property float y
property float z
property uchar diffuse_red
property uchar diffuse_green
property uchar diffuse_blue
end_header
2.836148e-001 5.098422e-001 -1.726707e+000 155 158 149
3.514206e-002 4.707897e-001 -1.609368e+000 144 144 134
-2.179042e-003 4.345088e-001 -1.577695e+000 154 150 139
4.177340e-001 4.487547e-001 -1.780746e+000 173 180 164
-2.228039e-001 3.179392e-001 -1.406212e+000 47 32 32
-1.892077e-001 3.134176e-001 -1.396926e+000 125 121 117
2.345678e-001 3.793452e-001 -1.653522e+000 153 172 183
-3.731752e-002 3.287750e-001 -1.546440e+000 151 143 141
6.798069e-003 3.289691e-001 -1.559820e+000 141 141 137
-2.128387e-001 2.614457e-001 -1.376284e+000 144 139 136
-2.272787e-001 2.243527e-001 -1.369962e+000 156 142 137
4.435256e-001 3.327169e-001 -1.803889e+000 186 192 190
4.595002e-001 3.288222e-001 -1.806327e+000 98 95 87
-2.268435e-001 2.048602e-001 -1.371805e+000 104 86 81
4.521034e-001 2.883903e-001 -1.805204e+000 161 177 161
1.215795e-002 5.976663e-002 -1.460882e+000 182 96 119
1.086063e-001 5.522508e-002 -1.500346e+000 145 149 137
-6.834740e-002 5.388395e-003 -1.365126e+000 11 65 76
4.921862e-002 2.374692e-002 -1.440290e+000 185 194 184
2.248720e-002 5.222269e-003 -1.409929e+000 112 124 114
-7.747404e-002 -1.318869e-002 -1.366489e+000 117 42 58
2.042793e-001 1.809814e-002 -1.468933e+000 135 68 29
2.135307e-001 1.419908e-002 -1.467570e+000 164 129 100
3.961735e-002 -9.138610e-003 -1.424271e+000 152 168 157
9.745073e-003 -2.075690e-002 -1.396825e+000 171 185 171
1.682730e-001 -4.437410e-003 -1.430781e+000 221 196 178
2.710773e-001 3.190959e-003 -1.514873e+000 119 1 1
2.557264e-001 -1.890922e-003 -1.500570e+000 96 13 12
2.350747e-001 -8.872024e-003 -1.481148e+000 38 39 37
2.477573e-001 -6.623214e-003 -1.491453e+000 132 123 122
2.348679e-001 -1.693495e-002 -1.479928e+000 219 223 220
2.417765e-001 -1.900213e-002 -1.494106e+000 211 216 212
2.713818e-001 -1.448152e-002 -1.507933e+000 116 7 5
2.602876e-001 -2.018649e-002 -1.501907e+000 119 5 3
2.361393e-001 -2.853001e-002 -1.496136e+000 32 30 32
2.080747e-001 -3.526042e-002 -1.459529e+000 18 15 12
2.802224e-001 -3.484145e-002 -1.513512e+000 215 214 210
2.626964e-001 -4.722273e-002 -1.499255e+000 90 93 92
2.378125e-001 -9.036186e-002 -1.480884e+000 199 201 198
2.247659e-001 -9.518835e-002 -1.472728e+000 190 192 187
2.309786e-001 -9.939423e-002 -1.475354e+000 64 64 62
2.805647e-001 -9.437223e-002 -1.512994e+000 33 32 32
2.196745e-001 -1.033413e-001 -1.464979e+000 16 18 15
2.579812e-001 -9.343994e-002 -1.493410e+000 146 144 143
2.477996e-001 -1.069131e-001 -1.489223e+000 18 21 18
2.210202e-001 -1.137098e-001 -1.464903e+000 93 92 90
2.313965e-001 -1.176116e-001 -1.470921e+000 160 156 154
-4.161959e-002 -1.578478e-001 -1.382259e+000 134 137 135
-8.091132e-002 -1.675153e-001 -1.349395e+000 127 186 192
2.803514e-001 -1.583251e-001 -1.510348e+000 123 93 91
2.936964e-001 -1.545575e-001 -1.517790e+000 161 129 121
2.795997e-001 -1.628759e-001 -1.501858e+000 172 124 122
2.632622e-001 -1.645695e-001 -1.492070e+000 160 119 113
2.268816e-001 -1.769134e-001 -1.464173e+000 118 99 98
2.210753e-001 -1.892534e-001 -1.462839e+000 34 17 0
6.161958e-002 -2.273431e-001 -1.418262e+000 27 51 33
4.148708e-002 -2.429432e-001 -1.400913e+000 18 73 30
9.631530e-002 -2.529284e-001 -1.449896e+000 39 42 32
8.812160e-002 -2.557839e-001 -1.439127e+000 64 93 57
7.958500e-002 -2.656358e-001 -1.433602e+000 86 117 92
9.594081e-002 -2.721417e-001 -1.450056e+000 94 120 99
4.056704e-001 -2.712534e-001 -1.481862e+000 120 118 17
4.735801e-001 -2.699091e-001 -1.501650e+000 37 57 0
5.046896e-001 -2.746091e-001 -1.504795e+000 56 134 48
-4.659877e-002 -3.836834e-001 -1.386330e+000 126 134 138
-7.756128e-002 -4.319784e-001 -1.409358e+000 82 69 71
4.042595e-002 -3.439338e-002 -1.425525e+000 85 170 120
2.342741e-001 -3.553310e-002 -1.485411e+000 220 221 215
2.428811e-001 -5.412833e-002 -1.482086e+000 56 61 58
2.329764e-001 -6.973014e-002 -1.481452e+000 201 204 198
2.204680e-001 -8.265305e-002 -1.468043e+000 222 220 217
2.459358e-001 -1.149641e-001 -1.481850e+000 211 210 207
4.971624e-002 -2.305813e-001 -1.405510e+000 30 57 36
1.010577e-001 -2.914352e-001 -1.451187e+000 62 140 99
2.620646e-003 4.238687e-001 -1.581211e+000 127 118 111
-1.381468e-001 2.666668e-001 -1.394591e+000 223 228 231
3.225534e-002 3.144533e-001 -1.611344e+000 127 112 97
-6.120962e-002 6.965672e-002 -1.389767e+000 54 135 164
2.310911e-001 -1.122934e-002 -1.484633e+000 38 34 31
1.728599e-002 -6.565339e-002 -1.397744e+000 55 104 75
2.198386e-001 -1.199742e-001 -1.454953e+000 213 212 211
2.711134e-001 -1.643629e-001 -1.498405e+000 178 131 127
1.765799e-001 -8.927158e-003 -1.436661e+000 209 211 208
3.554818e-002 -4.251415e-002 -1.424125e+000 94 183 129
-5.569025e-002 -1.089606e-001 -1.374458e+000 184 170 132
1.920678e-001 -1.055332e-001 -1.445807e+000 208 204 198
2.279467e-001 -1.823994e-001 -1.465174e+000 60 39 25
9.972782e-002 -2.875829e-001 -1.442945e+000 63 138 93
-1.515060e-001 2.043359e-001 -1.407093e+000 66 44 30
9.719072e-002 8.682915e-002 -1.515374e+000 215 225 235
-6.570008e-002 -1.323936e-002 -1.369138e+000 16 15 17
2.393818e-002 7.031824e-004 -1.400621e+000 68 83 77
3.621082e-002 -9.203908e-002 -1.413679e+000 90 177 118
3.939059e-001 4.303287e-001 -1.810377e+000 172 178 170
-1.454146e-001 2.473496e-001 -1.396491e+000 57 53 50
2.749238e-001 3.365511e-001 -1.625584e+000 86 121 68
3.552795e-002 9.864315e-003 -1.426427e+000 176 187 173
2.982713e-001 -5.646099e-002 -1.531600e+000 204 198 197
2.842094e-001 -6.418644e-002 -1.516459e+000 161 158 158
3.015949e-001 -7.012195e-002 -1.533347e+000 201 199 194
2.364032e-001 -1.157287e-001 -1.480290e+000 53 51 47
9.478022e-002 -2.716148e-001 -1.442910e+000 109 136 115
2.114482e-001 -1.001205e-001 -1.452922e+000 194 194 190
2.184580e-001 -1.225409e-001 -1.461340e+000 209 210 205
5.318158e-001 -1.330453e-001 -1.710885e+000 34 66 7
6.045915e-001 -2.125748e-001 -1.653515e+000 121 118 117
-2.602998e-002 4.129326e-001 -1.568102e+000 139 132 128
6.914198e-003 4.161164e-001 -1.591157e+000 126 122 113
6.352883e-002 -2.204165e-001 -1.434712e+000 31 32 26
5.789854e-002 -2.317535e-002 -1.437992e+000 12 11 9
1.862298e-001 -2.338846e-002 -1.443791e+000 97 93 92
2.908454e-001 -7.618614e-002 -1.529949e+000 55 59 53
2.800857e-001 -1.060010e-001 -1.519749e+000 208 207 205
2.541666e-001 1.326898e-003 -1.500156e+000 189 163 160
-2.310825e-001 3.882557e-001 -1.425719e+000 161 151 149
-1.896209e-002 3.730123e-001 -1.556692e+000 78 71 58
-2.154320e-001 3.326410e-001 -1.406190e+000 150 140 139
-2.255684e-001 2.605536e-001 -1.376870e+000 138 123 123
1.058231e-001 1.027768e-001 -1.557569e+000 175 82 113
-5.343410e-002 4.693297e-002 -1.394051e+000 17 114 146
-1.063059e-002 4.102242e-002 -1.436182e+000 208 115 146
1.903885e-001 1.560929e-002 -1.439266e+000 138 74 40
-6.427174e-002 1.330820e-002 -1.366353e+000 118 185 195
-4.665250e-002 9.232748e-003 -1.369304e+000 24 28 21
1.928724e-001 -2.283549e-002 -1.444728e+000 57 57 56
2.925162e-001 -3.177046e-002 -1.527574e+000 213 212 207
2.127510e-001 -8.357065e-002 -1.462203e+000 49 50 45
4.902166e-001 -1.429804e-001 -1.729397e+000 72 105 56
2.277720e-001 -1.232913e-001 -1.469381e+000 207 200 200
5.344565e-001 -1.429880e-001 -1.705265e+000 87 145 68
2.793231e-001 -2.660335e-001 -1.453652e+000 165 174 94
2.384329e-001 -3.369649e-001 -1.390417e+000 30 48 45
2.085972e-001 -3.463837e-001 -1.368913e+000 60 61 61
1.170676e-001 -3.673352e-001 -1.327648e+000 112 129 122
1.568783e-002 6.292854e-002 -1.463921e+000 183 73 107
5.444260e-004 3.476222e-003 -1.383602e+000 209 216 211
5.932126e-002 -2.757981e-001 -1.411521e+000 45 67 41
2.830184e-001 -2.890153e-001 -1.444097e+000 170 149 15
2.021310e-001 -3.460921e-001 -1.360491e+000 33 38 34
2.244950e-001 4.785565e-001 -1.725936e+000 193 211 211
2.189205e-001 4.079156e-001 -1.669565e+000 189 219 233
-3.072446e-002 4.284276e-002 -1.415044e+000 188 85 115
7.891607e-002 -2.546968e-001 -1.427627e+000 53 103 61
8.213816e-002 -2.812878e-001 -1.433211e+000 33 59 38
1.908535e-001 -2.431892e-002 -1.442902e+000 15 14 12
2.766948e-001 -8.578062e-002 -1.528009e+000 216 217 212
-1.487393e-002 -9.259012e-004 7.763966e-002 0 255 0
-1.439414e-002 -8.848220e-004 2.764198e-002 255 255 0
7.561923e-001 6.350257e-001 -1.148455e-001 255 0 0
7.388263e-001 6.208682e-001 -1.595444e-001 255 255 0
