ply
format ascii 1.0
element face 0
property list uchar int vertex_indices
element vertex 861
property float x
property float y
property float z
property uchar diffuse_red
property uchar diffuse_green
property uchar diffuse_blue
end_header
6.428570e-001 1.439045e-001 -2.026660e+000 141 138 145
6.451339e-001 1.339810e-001 -2.027280e+000 112 106 113
1.767661e-001 9.656416e-002 -1.590356e+000 112 148 126
-6.840204e-002 7.127176e-002 -1.381167e+000 36 129 157
-5.749682e-002 6.878172e-002 -1.386246e+000 44 136 161
1.960936e-001 7.582827e-002 -1.587475e+000 185 185 159
1.316970e-001 5.189210e-002 -1.530226e+000 47 57 43
6.107470e-002 2.980419e-002 -1.453993e+000 140 152 137
2.877864e-001 7.223924e-002 -1.534213e+000 182 168 148
1.265117e-002 1.244305e-002 -1.401739e+000 154 165 153
-2.344957e-002 8.053858e-003 -1.359007e+000 87 104 86
9.704316e-003 6.460887e-003 -1.391513e+000 128 142 133
3.615574e-001 8.610114e-002 -1.519570e+000 138 204 114
4.432443e-001 9.901766e-002 -1.542838e+000 63 127 44
2.711818e-002 -1.217489e-002 -1.417319e+000 84 99 91
4.153679e-001 8.055414e-002 -1.525592e+000 84 157 59
2.647454e-001 2.131809e-003 -1.515049e+000 127 9 1
2.482114e-001 -2.169081e-003 -1.498980e+000 188 181 181
2.098343e-001 -1.379471e-002 -1.464520e+000 69 69 71
2.162845e-001 -1.475155e-002 -1.471154e+000 156 156 152
2.565339e-001 -1.069238e-002 -1.504737e+000 229 44 38
2.741465e-001 -1.335243e-002 -1.518694e+000 153 13 11
2.033457e-001 -1.893217e-002 -1.459340e+000 17 15 16
2.279224e-001 -2.124826e-002 -1.478560e+000 34 33 33
2.475989e-001 -2.057070e-002 -1.497163e+000 77 14 10
2.533798e-001 -2.023099e-002 -1.498464e+000 158 49 47
2.090462e-001 -2.472908e-002 -1.467069e+000 209 212 209
2.296808e-001 -2.678792e-002 -1.481985e+000 22 23 23
2.303476e-001 -2.852367e-002 -1.486924e+000 49 48 50
2.189238e-001 -3.111548e-002 -1.471508e+000 20 20 21
2.367334e-001 -2.976396e-002 -1.488498e+000 94 87 80
6.515539e-001 -6.119784e-002 -1.961596e+000 183 192 189
2.645143e-001 -3.817986e-002 -1.506765e+000 183 184 181
2.338856e-001 -4.675937e-002 -1.476381e+000 173 176 167
6.693175e-001 -7.558631e-002 -1.975785e+000 126 133 137
2.781335e-001 -5.313641e-002 -1.518468e+000 88 87 88
2.049376e-001 -5.841120e-002 -1.460532e+000 43 48 42
2.735147e-001 -5.445442e-002 -1.515301e+000 24 21 23
6.779013e-001 -8.872758e-002 -1.994798e+000 168 169 167
2.563790e-001 -6.002474e-002 -1.499048e+000 95 96 91
2.130078e-001 -6.844190e-002 -1.470075e+000 25 23 24
2.343638e-001 -6.381831e-002 -1.482149e+000 125 125 121
6.844427e-001 -8.694624e-002 -1.978466e+000 98 103 103
2.676870e-001 -6.542521e-002 -1.511237e+000 211 212 209
6.786797e-001 -1.013443e-001 -1.983763e+000 104 90 79
2.424129e-001 -7.375870e-002 -1.489892e+000 219 217 215
2.799152e-001 -7.492130e-002 -1.517921e+000 109 116 109
2.708007e-001 -7.121640e-002 -1.494438e+000 183 190 182
2.579483e-001 -8.216264e-002 -1.501997e+000 199 203 201
3.031068e-001 -8.126325e-002 -1.535519e+000 163 164 164
2.774074e-001 -8.841100e-002 -1.515946e+000 44 41 41
3.017190e-001 -8.787411e-002 -1.533724e+000 93 94 92
2.911753e-001 -9.542146e-002 -1.526119e+000 78 84 80
3.054060e-001 -9.399691e-002 -1.537875e+000 196 199 194
2.867614e-001 -1.003356e-001 -1.520340e+000 180 179 177
2.448393e-001 -1.032551e-001 -1.486992e+000 25 24 20
2.627675e-001 -1.082509e-001 -1.503581e+000 216 218 217
2.741168e-001 -1.053131e-001 -1.512707e+000 202 198 200
2.541009e-001 -1.127982e-001 -1.494273e+000 138 136 136
1.944635e-001 -1.231293e-001 -1.443688e+000 200 182 170
2.049129e-001 -1.181098e-001 -1.446176e+000 177 158 52
5.022122e-001 -1.458212e-001 -1.730209e+000 69 113 50
-6.392941e-002 -2.069254e-001 -1.349840e+000 197 169 149
3.185018e-001 -1.470707e-001 -1.543937e+000 164 130 126
3.035971e-001 -1.499691e-001 -1.528613e+000 123 96 92
3.068616e-001 -1.496398e-001 -1.535022e+000 137 113 110
3.273688e-001 -1.554349e-001 -1.549136e+000 113 12 3
5.154564e-002 -2.119844e-001 -1.413314e+000 77 114 88
2.503432e-001 -1.684716e-001 -1.489763e+000 143 116 107
2.772819e-001 -1.639075e-001 -1.506835e+000 169 129 128
4.266192e-002 -2.196140e-001 -1.403961e+000 23 70 33
5.430810e-002 -2.216307e-001 -1.415393e+000 86 128 98
2.712308e-001 -1.785909e-001 -1.503277e+000 160 120 36
6.605944e-001 -1.407720e-001 -1.630173e+000 52 125 58
3.554242e-001 -2.372333e-001 -1.571903e+000 210 53 40
6.466796e-001 -1.493415e-001 -1.636631e+000 91 172 98
3.609107e-001 -2.374291e-001 -1.572287e+000 213 119 107
6.227402e-001 -1.642293e-001 -1.634078e+000 82 165 92
6.328487e-001 -1.553664e-001 -1.626844e+000 95 193 110
1.041969e-001 -2.898872e-001 -1.449071e+000 63 129 87
-6.067669e-003 -3.090850e-001 -1.374921e+000 112 148 165
3.427863e-002 -2.961445e-001 -1.387348e+000 40 40 37
6.086763e-001 -2.172625e-001 -1.668993e+000 117 130 120
4.596466e-001 -2.201817e-001 -1.539040e+000 93 120 63
2.169438e-001 -2.903082e-001 -1.442468e+000 210 215 115
8.006264e-001 -1.870128e-001 -1.703944e+000 125 155 78
4.609583e-001 -2.497546e-001 -1.529932e+000 143 171 64
1.120532e+000 -6.835624e-001 -2.868520e+000 76 60 72
2.283079e-001 -3.025040e-001 -1.435507e+000 68 59 1
-3.589912e-002 -4.187101e-001 -1.425146e+000 69 67 68
1.575375e-001 -3.176417e-001 -1.369624e+000 185 208 226
-4.633922e-002 -4.431298e-001 -1.431281e+000 72 66 68
1.535960e-001 -3.298013e-001 -1.367659e+000 75 107 161
2.026661e-001 -3.139280e-001 -1.380451e+000 94 127 167
4.819734e-001 -2.677455e-001 -1.514661e+000 66 158 66
2.484404e-001 -3.209782e-001 -1.413907e+000 93 118 108
1.747708e-001 -3.270713e-001 -1.366696e+000 94 126 169
2.693883e-001 -3.177773e-001 -1.422057e+000 103 137 123
2.261968e-001 -3.290768e-001 -1.402049e+000 103 115 108
2.056261e-001 -3.214337e-001 -1.368138e+000 130 160 201
4.646255e-001 -2.900280e-001 -1.514722e+000 31 25 11
1.945927e-001 -3.322622e-001 -1.366796e+000 49 57 84
2.060898e-001 -3.300334e-001 -1.366790e+000 57 60 76
2.129283e-001 -3.273503e-001 -1.366962e+000 47 47 55
2.489315e-001 -3.290104e-001 -1.394993e+000 41 53 53
5.037474e-001 -2.820715e-001 -1.506352e+000 102 205 119
2.902201e-001 -3.214114e-001 -1.401379e+000 66 69 69
1.405827e-001 -3.568805e-001 -1.343899e+000 106 114 109
1.107007e-001 -3.698852e-001 -1.325844e+000 47 42 45
3.053144e-001 -3.295278e-001 -1.403535e+000 106 124 121
5.201948e-001 -2.730977e-001 -1.471780e+000 107 194 126
1.225755e-001 -3.703211e-001 -1.321511e+000 115 130 127
2.166328e-001 -3.494913e-001 -1.355167e+000 97 112 103
2.522558e-001 -3.387064e-001 -1.371650e+000 63 71 82
4.022552e-001 -3.113200e-001 -1.432995e+000 42 52 51
2.629803e-001 -3.424609e-001 -1.370591e+000 66 77 74
1.340874e-001 -3.698151e-001 -1.313525e+000 56 72 64
1.567221e-001 -3.703383e-001 -1.323881e+000 101 120 110
-2.497633e-001 4.171659e-001 -1.442247e+000 77 62 65
3.571647e-001 5.079065e-001 -1.759473e+000 134 145 128
-3.131048e-002 3.721028e-001 -1.549267e+000 113 110 107
-2.122018e-001 3.381922e-001 -1.403479e+000 161 157 156
3.663138e-001 4.343320e-001 -1.788787e+000 157 171 158
-1.635379e-002 3.393963e-001 -1.556312e+000 47 38 34
-3.481604e-003 3.310147e-001 -1.550857e+000 213 209 208
4.460539e-001 3.852375e-001 -1.806671e+000 191 200 189
4.221915e-001 3.355563e-001 -1.812063e+000 194 212 195
3.747204e-001 2.429926e-001 -1.850030e+000 79 131 59
4.975718e-001 2.245985e-001 -1.859681e+000 122 122 116
1.636964e-002 6.043680e-002 -1.455066e+000 142 124 146
1.837614e-003 2.886971e-003 -1.392789e+000 192 202 195
5.783100e-001 2.343056e-002 -1.839656e+000 27 35 10
2.109970e-001 -1.498006e-002 -1.462188e+000 24 25 27
2.386052e-001 -1.794237e-002 -1.488477e+000 215 214 213
2.246188e-001 -3.513147e-002 -1.476830e+000 208 214 208
2.309281e-001 -5.215481e-002 -1.480291e+000 200 203 194
1.907400e-001 -5.926554e-002 -1.449361e+000 19 19 19
2.103885e-001 -5.899788e-002 -1.467548e+000 216 222 216
2.807028e-001 -6.131718e-002 -1.521153e+000 218 223 222
2.392832e-001 -6.805083e-002 -1.481517e+000 192 195 187
2.585811e-001 -6.644763e-002 -1.502205e+000 22 26 25
2.916569e-001 -7.154057e-002 -1.529486e+000 217 219 216
3.009957e-001 -9.583501e-002 -1.531410e+000 218 215 212
1.926145e-001 -1.217187e-001 -1.463593e+000 203 198 194
3.514259e-001 -2.312953e-001 -1.568014e+000 230 45 28
3.463677e-001 -2.428279e-001 -1.569727e+000 221 193 70
3.464512e-001 -2.548512e-001 -1.570982e+000 74 52 5
3.098468e-001 -2.739769e-001 -1.482564e+000 242 245 96
2.273956e-001 -3.030681e-001 -1.430835e+000 32 26 7
2.516963e-001 -3.231333e-001 -1.408206e+000 108 128 123
3.697440e-001 4.946429e-001 -1.746882e+000 157 172 163
1.136231e-001 4.212366e-001 -1.619062e+000 74 62 58
-3.279991e-002 3.825521e-001 -1.556930e+000 145 146 143
-1.921413e-001 3.205017e-001 -1.379729e+000 89 74 71
2.572138e-002 3.586957e-001 -1.599479e+000 128 124 113
4.233209e-001 3.484432e-001 -1.804332e+000 119 131 104
-1.663766e-001 2.429237e-001 -1.411543e+000 72 59 54
6.168571e-002 2.019134e-001 -1.543239e+000 205 221 181
4.627978e-001 2.739733e-001 -1.803259e+000 129 148 134
5.000334e-001 2.547233e-001 -1.890531e+000 103 107 99
5.091770e-001 2.370980e-001 -1.929109e+000 71 65 57
5.002867e-001 2.197434e-001 -1.870682e+000 116 117 108
5.533718e-001 2.094637e-001 -1.933082e+000 80 67 51
4.879650e-001 1.960491e-001 -1.837467e+000 143 151 130
5.151018e-001 1.639394e-001 -1.927185e+000 99 97 86
5.355071e-001 1.322150e-001 -1.949088e+000 48 47 31
4.754583e-001 1.405621e-001 -1.837093e+000 68 128 54
-6.877789e-002 6.949495e-002 -1.381285e+000 11 97 123
-5.181639e-002 1.952426e-002 -1.365065e+000 203 202 191
-6.049118e-002 1.057367e-002 -1.361088e+000 38 64 79
2.828094e-001 6.880256e-002 -1.540764e+000 210 186 172
1.398859e-002 9.026069e-003 -1.402210e+000 97 109 95
6.949873e-002 5.380536e-003 -1.422773e+000 20 21 17
1.712582e-001 -5.192953e-003 -1.432108e+000 210 206 202
1.931543e-001 -5.891370e-002 -1.453211e+000 14 15 18
2.762074e-001 -4.862631e-002 -1.513135e+000 33 28 29
2.044306e-001 -7.386112e-002 -1.462816e+000 206 209 203
-8.381826e-002 -1.597585e-001 -1.345095e+000 119 180 184
1.999662e-001 -1.237441e-001 -1.493240e+000 173 175 173
2.473250e-001 -1.136780e-001 -1.488960e+000 211 209 206
5.604963e-001 -1.207859e-001 -1.751695e+000 88 78 67
2.027427e-001 -1.415393e-001 -1.454271e+000 215 195 72
3.232261e-001 -1.564316e-001 -1.552038e+000 56 8 1
2.868208e-001 -1.584045e-001 -1.495579e+000 35 14 13
2.198495e-001 -1.876300e-001 -1.468711e+000 33 24 5
3.496653e-002 -2.318226e-001 -1.398503e+000 105 162 124
4.831323e-002 -2.285492e-001 -1.405345e+000 50 96 64
-4.532043e-002 -3.244968e-001 -1.379647e+000 168 60 83
6.055043e-001 -2.241688e-001 -1.652674e+000 23 22 20
2.054862e-001 -3.020580e-001 -1.415521e+000 121 120 116
1.091928e-001 5.103313e-001 -1.683420e+000 144 144 137
4.049234e-001 4.344907e-001 -1.792661e+000 123 123 103
4.862465e-001 3.777860e-001 -1.836393e+000 173 177 173
4.323076e-001 3.182399e-001 -1.827807e+000 160 181 176
4.586331e-001 3.299390e-001 -1.811801e+000 110 116 100
2.819127e-001 2.653392e-001 -1.678481e+000 87 1 0
2.636122e-001 2.557630e-001 -1.669264e+000 109 143 77
4.761651e-001 1.830867e-001 -1.798959e+000 123 178 94
1.994066e-001 2.012398e-002 -1.470985e+000 128 79 50
1.952221e-001 -1.030116e-001 -1.468319e+000 29 28 26
2.752260e-001 -8.826061e-002 -1.482989e+000 71 73 69
5.495057e-001 -1.386898e-001 -1.711019e+000 102 174 86
4.439689e-002 4.534535e-001 -1.610141e+000 145 140 134
2.970648e-002 3.508128e-001 -1.613307e+000 125 114 102
3.869893e-001 4.196808e-001 -1.787204e+000 189 207 198
-1.539472e-002 3.379545e-001 -1.570978e+000 70 57 47
-1.677512e-004 3.003164e-001 -1.580321e+000 177 175 162
-1.324581e-001 2.641806e-001 -1.387335e+000 214 216 220
-1.593233e-001 2.342813e-001 -1.400410e+000 66 47 35
1.275796e-001 2.282084e-001 -1.621510e+000 194 231 187
2.747003e-001 2.595974e-001 -1.645261e+000 121 164 88
5.070979e-001 2.462138e-001 -1.904632e+000 90 92 85
1.643952e-001 1.161754e-001 -1.591926e+000 230 242 239
-1.297117e-001 -6.393690e-003 -1.326968e+000 182 113 138
-6.283293e-002 -1.067583e-001 -1.335723e+000 169 188 149
3.936566e-002 -9.934718e-002 -1.422465e+000 87 173 114
5.041405e-001 -1.225203e-001 -1.740761e+000 99 161 77
2.247847e-001 -1.719601e-001 -1.483131e+000 18 19 15
5.389689e-001 2.242130e-001 -1.876534e+000 173 166 156
1.576675e-001 1.724670e-001 -1.650663e+000 20 20 20
1.990785e-001 1.604836e-001 -1.678550e+000 114 189 94
4.600036e-001 1.878710e-001 -1.866376e+000 21 32 15
3.991304e-001 1.577474e-001 -1.772545e+000 118 180 94
4.604385e-001 1.447587e-001 -1.874936e+000 95 155 82
2.480758e-001 4.606540e-002 -1.535066e+000 219 220 213
-1.916810e-002 4.275806e-001 -1.566967e+000 118 119 111
9.106822e-002 4.439142e-001 -1.645145e+000 196 208 203
-3.286259e-002 3.827935e-001 -1.553303e+000 132 132 127
1.615041e-001 3.959095e-001 -1.626209e+000 130 126 120
2.466119e-001 4.095047e-001 -1.681320e+000 201 232 232
-1.672178e-001 3.151593e-001 -1.367016e+000 173 169 168
-2.067314e-001 3.088364e-001 -1.392157e+000 156 146 150
-2.187291e-002 3.404776e-001 -1.565911e+000 65 53 44
-1.408312e-001 2.686160e-001 -1.387965e+000 229 227 230
4.079053e-001 3.426946e-001 -1.783559e+000 158 178 157
4.333786e-001 3.065309e-001 -1.814447e+000 147 167 154
3.116310e-001 2.667018e-001 -1.682850e+000 230 103 155
3.793659e-001 2.165699e-001 -1.857673e+000 59 109 21
5.810567e-001 2.285473e-001 -1.951257e+000 144 141 136
5.598455e-001 2.194186e-001 -1.916068e+000 205 211 204
6.153869e-001 2.276475e-001 -2.016227e+000 77 71 73
4.897149e-001 1.761004e-001 -1.852477e+000 52 71 27
1.069218e-001 1.088674e-001 -1.560561e+000 209 100 135
8.005224e-002 9.539230e-002 -1.533432e+000 56 144 167
1.656853e-001 9.257037e-002 -1.372531e+000 179 87 114
3.294864e-002 7.523575e-002 -1.485715e+000 59 137 160
3.770322e-001 8.133347e-002 -1.102522e+000 104 150 79
-3.479865e-003 5.872639e-002 -1.441836e+000 81 168 193
5.975977e-002 6.990528e-002 -1.450566e+000 113 148 175
1.898977e-001 8.488665e-002 -1.583265e+000 80 91 89
-1.468878e-001 4.700910e-002 -1.592499e+000 62 139 164
-2.803181e-002 4.938646e-002 -1.419605e+000 187 81 118
-3.234494e-002 4.493672e-002 -1.414024e+000 172 77 105
-4.732429e-002 3.560732e-002 -1.395863e+000 61 144 172
2.648878e-001 7.094893e-002 -1.545716e+000 38 34 16
1.458796e-001 5.537214e-002 -1.531737e+000 84 92 82
1.138929e-001 3.529626e-002 -1.433702e+000 63 75 65
1.999144e-001 2.973901e-002 -1.461332e+000 167 100 57
-3.280579e-003 1.337859e-003 -1.387306e+000 168 176 168
1.638767e-001 1.873557e-002 -1.441235e+000 130 69 32
2.008847e-002 -1.322716e-003 -1.409742e+000 82 92 85
1.896526e-001 1.584394e-002 -1.452860e+000 136 69 36
1.749315e-001 1.178720e-002 -1.443950e+000 170 98 58
1.718262e-001 9.833698e-003 -1.437528e+000 159 92 55
1.640736e-001 7.629384e-003 -1.430949e+000 144 78 39
1.958613e-001 -3.051508e-002 -1.452537e+000 47 45 48
2.155203e-001 -3.342509e-002 -1.470427e+000 29 29 27
2.353843e-001 -3.239774e-002 -1.486052e+000 212 195 193
2.465198e-001 -4.331872e-002 -1.495095e+000 211 214 207
2.323058e-001 -4.890872e-002 -1.474394e+000 205 207 203
2.571293e-001 -6.223216e-002 -1.500463e+000 116 114 115
2.098587e-001 -8.218677e-002 -1.464363e+000 43 39 36
2.182495e-001 -8.227193e-002 -1.467277e+000 217 219 219
2.869554e-001 -7.290030e-002 -1.508256e+000 22 22 18
2.233360e-001 -9.215083e-002 -1.469368e+000 168 170 164
2.204229e-001 -1.090124e-001 -1.472312e+000 219 221 216
2.261183e-001 -1.085462e-001 -1.479188e+000 217 217 215
2.689880e-001 -1.618246e-001 -1.502689e+000 145 115 116
2.718510e-001 -1.663359e-001 -1.505314e+000 159 117 122
2.412684e-001 -1.764612e-001 -1.480612e+000 133 93 92
4.719777e-002 -2.007505e-001 -1.410683e+000 55 89 46
9.404412e-002 -2.531933e-001 -1.451284e+000 58 60 41
3.469790e-001 -2.605607e-001 -1.484141e+000 165 177 123
3.205074e-001 -2.644165e-001 -1.472852e+000 213 228 136
3.363382e-001 -2.636881e-001 -1.471954e+000 97 109 60
3.886024e-001 -2.588705e-001 -1.484928e+000 65 83 0
3.237334e-001 -2.732159e-001 -1.461461e+000 85 93 17
2.188174e-001 -2.866467e-001 -1.441005e+000 217 217 128
3.801775e-001 -2.662417e-001 -1.477864e+000 60 77 15
6.888780e-002 -3.073917e-001 -1.421583e+000 80 148 102
1.859497e-001 -2.944411e-001 -1.440200e+000 90 58 34
2.113241e-001 -2.924510e-001 -1.442347e+000 17 20 0
3.324619e-001 -2.761833e-001 -1.466071e+000 42 53 8
3.724922e-001 -2.781185e-001 -1.486295e+000 77 74 7
3.237647e-001 -2.848248e-001 -1.456064e+000 80 77 13
2.146739e-001 -3.070674e-001 -1.415679e+000 28 25 18
3.211991e-001 -3.080526e-001 -1.411492e+000 75 96 92
1.814265e-001 -3.268676e-001 -1.373114e+000 149 182 218
1.528616e-001 -3.382210e-001 -1.368312e+000 72 69 69
1.895101e-001 -3.319501e-001 -1.365333e+000 65 70 75
2.467582e-001 -3.350664e-001 -1.392101e+000 107 118 110
1.881860e-001 -3.411742e-001 -1.350122e+000 112 100 74
1.967899e-001 -3.494330e-001 -1.369772e+000 81 97 92
2.478187e-001 -3.468359e-001 -1.369524e+000 71 73 68
1.849372e-001 -3.581872e-001 -1.349251e+000 106 122 117
1.127166e-001 -3.782320e-001 -1.316614e+000 115 124 120
1.111230e-001 -3.835074e-001 -1.304971e+000 70 77 73
1.070588e-001 -3.863166e-001 -1.291736e+000 72 93 82
1.892671e-001 -3.878126e-001 -1.306366e+000 67 96 89
1.950953e-001 -4.083366e-001 -1.270802e+000 101 118 112
1.171310e-001 -4.180096e-001 -1.237161e+000 18 18 22
1.529584e-001 -4.152366e-001 -1.250845e+000 78 108 103
9.806023e-002 -4.255830e-001 -1.223053e+000 51 68 61
1.767485e-001 -4.152002e-001 -1.255063e+000 101 114 101
1.394344e-001 -4.221946e-001 -1.247171e+000 19 22 24
1.522073e-001 -4.210007e-001 -1.246984e+000 108 119 118
1.234423e-001 -4.263071e-001 -1.234058e+000 105 116 113
1.697853e-001 -4.238545e-001 -1.246729e+000 107 122 113
2.708409e-001 4.370810e-001 -1.739329e+000 126 172 107
4.122726e-001 3.746739e-001 -1.816435e+000 199 220 215
5.180100e-002 2.863899e-001 -1.635631e+000 233 241 246
7.957211e-002 2.821287e-001 -1.589225e+000 136 136 130
4.107281e-001 3.247786e-001 -1.824462e+000 94 111 75
5.861091e-001 3.186075e-001 -1.991110e+000 48 47 45
-4.165120e-002 -1.573543e-001 -1.379564e+000 132 168 170
3.160271e-001 -2.669681e-001 -1.470720e+000 232 244 123
3.337770e-001 -2.661778e-001 -1.459737e+000 126 134 95
3.644985e-001 -2.732535e-001 -1.458877e+000 37 38 11
1.347467e-001 -4.059465e-001 -1.265458e+000 25 25 29
2.213363e-001 4.888344e-001 -1.761507e+000 189 207 207
-2.426035e-002 4.102573e-001 -1.569061e+000 136 126 124
-2.569501e-003 3.309184e-001 -1.566966e+000 73 66 59
-1.442447e-001 2.399757e-001 -1.390447e+000 84 73 66
7.779131e-002 2.789369e-001 -1.573300e+000 234 241 245
1.200299e-001 2.844356e-001 -1.603628e+000 134 215 235
6.063086e-001 2.527326e-001 -1.980213e+000 20 16 19
4.777050e-001 2.055044e-001 -1.844415e+000 127 135 103
1.669138e-001 1.396453e-001 -1.642409e+000 17 30 27
1.810454e-001 1.235164e-001 -1.603867e+000 29 30 22
1.826523e-002 6.603200e-002 -1.461771e+000 190 87 119
-2.855327e-002 4.760784e-002 -1.414261e+000 185 86 117
1.024100e-001 5.570670e-002 -1.513557e+000 189 195 188
1.330138e-001 4.024467e-002 -1.427134e+000 126 138 126
-6.712669e-002 1.020626e-003 -1.368545e+000 19 19 22
1.675113e-001 2.073223e-002 -1.435812e+000 177 114 73
3.631641e-002 4.429220e-003 -1.422739e+000 133 144 136
4.599169e-002 -1.345607e-002 -1.442175e+000 27 38 34
2.676631e-001 9.924450e-004 -1.511168e+000 118 14 8
1.815963e-001 -2.447348e-002 -1.457120e+000 47 42 35
6.838271e-001 -3.630083e-002 -1.993678e+000 61 51 50
2.419406e-001 -1.739172e-001 -1.494360e+000 134 90 90
8.503814e-002 -2.764996e-001 -1.432333e+000 44 60 45
1.241174e-001 -3.940334e-001 -1.288686e+000 19 24 27
-2.096736e-001 3.397521e-001 -1.392569e+000 139 135 131
4.186058e-002 2.867062e-001 -1.619018e+000 229 239 237
2.507552e-002 2.523979e-003 -1.421054e+000 184 194 185
6.151659e-002 -2.035806e-001 -1.419205e+000 44 44 38
4.172492e-002 -2.582592e-001 -1.403543e+000 85 155 101
6.176757e-002 -2.722267e-001 -1.429452e+000 45 60 41
-4.344536e-003 -2.959429e-001 -1.401945e+000 77 153 166
5.041357e-002 -2.971749e-001 -1.407336e+000 82 144 96
9.416993e-002 4.504642e-001 -1.636583e+000 178 189 179
-1.472604e-002 3.573071e-001 -1.558398e+000 87 68 55
4.436535e-003 -5.780560e-002 -1.389213e+000 94 165 120
-6.167263e-002 -9.667687e-002 -1.370168e+000 204 188 153
7.197011e-002 -2.454458e-001 -1.414927e+000 97 170 106
7.549780e-002 -2.702016e-001 -1.419830e+000 39 46 37
9.830041e-002 -2.733734e-001 -1.443851e+000 112 136 119
2.297942e-002 2.881831e-001 -1.630971e+000 231 244 244
1.205810e-001 2.461193e-002 -1.432096e+000 196 181 159
7.228674e-002 -2.111494e-001 -1.431643e+000 40 35 31
-6.956909e-002 7.013319e-002 -1.380910e+000 55 137 161
2.313030e-001 -4.840837e-002 -1.480231e+000 184 183 179
2.362571e-001 -7.527297e-002 -1.477079e+000 34 33 32
2.046573e-001 -8.546760e-002 -1.455968e+000 216 214 213
1.914622e-001 -1.223007e-001 -1.446874e+000 223 204 191
3.602327e-001 5.122536e-001 -1.729914e+000 133 147 123
2.019509e-001 -1.349985e-001 -1.455967e+000 207 183 61
2.413942e-001 -8.092101e-002 -1.485767e+000 29 25 22
2.179523e-001 -1.373700e-001 -1.461831e+000 29 25 24
3.837262e-001 4.288409e-001 -1.790710e+000 193 206 199
2.872701e-001 1.481082e-001 -1.771525e+000 45 38 2
3.030336e-001 1.128040e-001 -1.782192e+000 88 120 59
3.225029e-001 1.139691e-001 -1.779201e+000 73 107 23
3.250638e-001 1.125903e-001 -1.785222e+000 125 157 62
-5.898626e-002 6.781948e-002 -1.381945e+000 52 149 178
-1.116624e-001 -5.325272e-004 -1.327419e+000 145 151 177
3.551109e-002 1.008776e-002 -1.421364e+000 119 138 129
3.092460e-002 3.279638e-003 -1.418211e+000 183 194 188
6.903916e-001 -2.371532e-002 -1.987182e+000 89 79 77
1.931369e-001 -2.033443e-002 -1.451883e+000 119 118 116
6.397294e-001 -4.503367e-002 -1.948146e+000 132 138 139
6.423859e-001 -4.417544e-002 -1.951638e+000 118 124 125
-5.243658e-002 -9.142232e-002 -1.362553e+000 207 165 146
1.873963e-001 -4.059575e-002 -1.448585e+000 20 17 16
2.149324e-001 -5.355864e-002 -1.466937e+000 177 180 177
2.228155e-001 -6.898950e-002 -1.471391e+000 14 14 12
2.987591e-001 -7.573278e-002 -1.533827e+000 86 83 85
2.031649e-001 -8.607172e-002 -1.460827e+000 210 210 201
2.370046e-001 -2.892573e-001 -1.428014e+000 184 177 64
-2.159190e-002 3.695500e-001 -1.559648e+000 66 59 51
5.534812e-001 2.133895e-001 -1.934042e+000 102 101 88
3.256091e-001 1.570572e-001 -1.788260e+000 174 194 84
5.301635e-001 1.470712e-001 -1.935358e+000 59 52 38
3.038487e-001 1.094597e-001 -1.773500e+000 90 133 64
2.597251e-001 -4.554170e-002 -1.503176e+000 6 6 10
2.482811e-001 -4.494174e-002 -1.493879e+000 212 219 213
2.843529e-001 -7.546935e-002 -1.524145e+000 13 17 13
1.978453e-001 -1.182809e-001 -1.456592e+000 126 58 51
5.544425e-003 3.961615e-001 -1.616709e+000 156 152 141
-1.751286e-002 2.235404e-001 -1.495245e+000 58 179 209
2.131012e-002 1.967518e-001 -1.483417e+000 210 209 175
-1.415683e-001 9.418362e-002 -1.296704e+000 170 126 111
3.447407e-002 -6.205119e-003 -1.421111e+000 100 117 109
1.928003e-001 -6.194362e-002 -1.447288e+000 27 26 26
-6.535020e-002 -2.331313e-001 -1.358306e+000 189 185 149
2.415192e-001 -1.732701e-001 -1.482969e+000 126 104 100
2.313316e-001 -6.574755e-002 -1.492208e+000 181 182 177
2.136975e-001 -7.613507e-002 -1.466435e+000 202 207 201
2.974771e-001 -8.686291e-002 -1.527888e+000 201 202 199
2.202146e-001 -1.143120e-001 -1.476010e+000 153 151 150
6.694465e-002 -1.679474e-001 -1.427372e+000 106 164 96
-4.776467e-002 -2.301611e-001 -1.383488e+000 167 181 140
1.171852e-003 -5.923658e-002 -1.391861e+000 77 160 114
4.100864e-001 3.316123e-001 -1.800745e+000 135 152 127
-1.700861e-002 1.601549e-001 -1.445547e+000 213 170 163
4.782708e-001 2.284630e-001 -1.818112e+000 166 178 165
1.308296e-002 6.939440e-002 -1.466017e+000 177 87 114
-5.320969e-002 4.747132e-002 -1.393013e+000 56 145 168
-9.709586e-003 5.641482e-002 -1.434009e+000 62 147 167
6.498508e-002 1.130956e-002 -1.449214e+000 75 75 67
1.763572e-001 2.250948e-002 -1.451710e+000 168 103 64
1.611315e-001 1.682251e-002 -1.430461e+000 153 85 40
1.836197e-001 1.636172e-002 -1.457357e+000 156 90 51
1.932240e-001 -2.198774e-002 -1.452457e+000 74 75 72
2.169736e-001 -1.811057e-002 -1.473119e+000 58 60 59
1.920748e-001 -3.763640e-002 -1.449156e+000 150 150 148
1.881884e-001 -4.134883e-002 -1.447233e+000 46 46 41
2.895398e-001 -3.035024e-002 -1.532371e+000 206 208 202
2.142179e-001 -6.732768e-002 -1.467139e+000 25 23 23
2.448881e-001 -6.330045e-002 -1.492164e+000 72 76 75
2.378051e-001 -7.574786e-002 -1.483749e+000 60 56 57
2.583314e-001 -8.252417e-002 -1.499561e+000 193 198 193
3.038321e-001 -8.146587e-002 -1.537544e+000 93 84 81
2.109715e-001 -9.641373e-002 -1.460319e+000 159 164 158
3.011933e-001 -8.812009e-002 -1.536927e+000 71 71 72
2.075023e-001 -1.024470e-001 -1.458661e+000 172 173 170
2.510151e-001 -1.717103e-001 -1.490794e+000 163 120 121
7.233227e-002 -2.626633e-001 -1.427044e+000 51 88 58
2.888750e-001 -2.642431e-001 -1.465799e+000 154 123 37
3.333889e-001 -2.620108e-001 -1.467133e+000 176 188 137
3.624630e-001 -2.774690e-001 -1.474270e+000 19 20 0
3.460720e-001 -3.161997e-001 -1.405744e+000 56 62 59
7.893131e-002 -3.713278e-001 -1.271133e+000 41 52 46
8.865889e-002 -3.778126e-001 -1.270373e+000 140 143 136
5.084170e-001 -3.685384e-001 -1.351912e+000 148 165 155
5.037054e-001 -3.757574e-001 -1.349845e+000 51 75 67
4.704860e-001 -3.888786e-001 -1.313438e+000 94 117 108
4.405808e-001 -3.929969e-001 -1.305726e+000 26 27 20
2.681479e-001 -4.141813e-001 -1.258789e+000 70 100 86
4.409143e-001 -3.935768e-001 -1.295116e+000 100 123 113
4.545243e-001 -3.996693e-001 -1.316717e+000 98 125 118
2.687192e-001 -1.261290e-002 -1.512790e+000 112 18 12
2.886541e-001 -5.903127e-002 -1.528207e+000 42 40 39
2.349033e-001 -9.392116e-002 -1.483774e+000 210 211 207
2.881388e-001 -9.976220e-002 -1.524556e+000 26 23 22
2.703388e-001 -1.801762e-001 -1.503628e+000 200 185 70
4.253233e-001 3.285618e-001 -1.820903e+000 153 173 162
1.142156e-001 9.317309e-002 -1.437146e+000 50 141 165
1.042511e-002 -1.836254e-002 -1.395709e+000 115 127 114
2.658972e-001 -2.754051e-001 -1.495517e+000 70 64 3
2.186278e-001 -5.819151e-002 -1.470563e+000 27 23 24
2.799079e-001 -1.010535e-001 -1.514189e+000 217 217 215
3.414559e-001 1.717714e-001 -1.826113e+000 199 234 94
6.653111e-002 1.587013e-002 -1.435896e+000 143 148 141
-2.454894e-001 3.879745e-001 -1.419678e+000 138 124 127
2.300095e-001 4.795640e-001 -1.748982e+000 160 177 168
2.051314e-001 4.585988e-001 -1.696556e+000 170 177 169
3.843772e-001 4.826271e-001 -1.755532e+000 133 140 126
5.298264e-001 5.434252e-001 -1.983632e+000 103 99 95
1.846427e-001 4.245173e-001 -1.626332e+000 155 159 157
4.004692e-001 4.652652e-001 -1.769512e+000 171 181 163
3.195737e-001 4.307699e-001 -1.745807e+000 105 116 126
3.250230e-001 4.295698e-001 -1.756634e+000 44 56 65
3.306666e-001 4.268724e-001 -1.758119e+000 62 73 79
2.389718e-002 3.448868e-001 -1.606261e+000 93 86 75
3.914934e-001 4.040348e-001 -1.798369e+000 176 200 184
-2.078140e-001 2.265891e-001 -1.367879e+000 127 120 117
4.420080e-001 3.839506e-001 -1.813247e+000 172 179 168
4.297231e-001 3.151023e-001 -1.806328e+000 146 167 150
3.050405e-001 2.700139e-001 -1.688784e+000 163 50 77
4.380964e-001 2.948491e-001 -1.814846e+000 163 182 163
3.367579e-001 2.266692e-001 -1.671456e+000 73 118 50
4.790005e-001 2.444999e-001 -1.891392e+000 136 136 131
3.408542e-001 1.985907e-001 -1.837715e+000 76 112 16
5.108701e-001 2.356861e-001 -1.900344e+000 183 178 170
4.778295e-001 2.090790e-001 -1.828969e+000 134 149 117
1.008915e-001 1.079024e-001 -1.555990e+000 193 88 124
3.315362e-001 1.685670e-001 -1.812835e+000 200 232 100
1.071563e-001 1.017555e-001 -1.558155e+000 171 79 104
3.258759e-001 1.602935e-001 -1.798831e+000 158 177 79
5.783824e-001 2.158120e-001 -1.933575e+000 203 204 196
5.704246e-001 2.060915e-001 -1.921416e+000 191 189 176
5.186844e-001 1.533147e-001 -1.926071e+000 179 170 163
5.283798e-001 1.392512e-001 -1.922219e+000 40 25 16
5.440505e-001 1.396734e-001 -1.937884e+000 164 172 156
2.073137e-001 4.341379e-002 -1.464481e+000 160 131 116
5.398304e-001 1.231456e-001 -1.940718e+000 153 146 135
2.077581e-002 -1.514391e-002 -1.407128e+000 170 178 170
1.842227e-001 1.162617e-002 -1.448643e+000 109 59 29
2.902172e-001 1.104740e-002 -1.527874e+000 102 1 1
2.605284e-001 4.061005e-003 -1.514643e+000 203 27 22
2.822899e-001 8.314828e-003 -1.525147e+000 87 10 5
2.706450e-001 4.141721e-004 -1.514270e+000 167 34 28
2.739133e-001 -4.024572e-003 -1.516776e+000 180 26 22
2.073320e-001 -2.083477e-002 -1.466553e+000 218 220 219
2.602802e-001 -1.211537e-002 -1.788539e+000 56 95 41
2.069062e-001 -2.576696e-002 -1.464557e+000 208 215 208
2.206233e-001 -2.654357e-002 -1.471906e+000 53 53 53
2.886382e-001 -8.308566e-003 -1.530257e+000 102 2 2
2.965371e-001 -1.973575e-002 -1.534574e+000 139 16 8
1.883150e-001 -5.314850e-002 -1.450363e+000 76 75 77
2.910859e-001 -2.984283e-002 -1.529410e+000 196 197 195
1.957004e-001 -5.920301e-002 -1.458790e+000 148 150 146
2.144307e-001 -6.718513e-002 -1.466658e+000 11 15 14
2.499026e-001 -6.438204e-002 -1.485865e+000 67 71 70
2.855390e-001 -6.020454e-002 -1.523671e+000 181 181 180
2.556369e-001 -7.016628e-002 -1.497338e+000 209 209 209
2.428994e-001 -7.411974e-002 -1.490736e+000 216 219 216
2.896334e-001 -7.044184e-002 -1.525715e+000 144 149 148
2.475361e-001 -8.600532e-002 -1.490841e+000 209 209 206
2.886309e-001 -7.674734e-002 -1.523750e+000 81 87 84
2.263926e-001 -9.458635e-002 -1.472251e+000 176 181 175
2.961325e-001 -9.809482e-002 -1.529412e+000 216 220 221
2.299943e-001 -1.178775e-001 -1.477275e+000 141 140 141
2.418971e-001 -1.158232e-001 -1.481375e+000 205 206 208
2.547695e-001 -1.116195e-001 -1.494203e+000 151 151 150
6.441760e-001 -6.862102e-002 -1.990719e+000 103 111 105
4.511724e-002 -2.081032e-001 -1.408307e+000 31 59 33
-5.033366e-002 -2.405306e-001 -1.354377e+000 182 128 121
3.092685e-001 -1.465911e-001 -1.537656e+000 61 43 38
2.727435e-001 -1.607085e-001 -1.517186e+000 139 111 109
3.102425e-001 -1.545636e-001 -1.529735e+000 100 57 58
2.331658e-001 -1.747492e-001 -1.474720e+000 73 69 71
2.321115e-001 -1.787208e-001 -1.475525e+000 96 76 81
2.225319e-001 -2.754340e-001 -1.462336e+000 146 109 6
2.285026e-001 -2.744805e-001 -1.439414e+000 212 196 95
2.635468e-001 -2.732380e-001 -1.470886e+000 141 107 34
3.798820e-001 -2.547434e-001 -1.480354e+000 190 201 132
2.207350e-001 -3.218347e-001 -1.391806e+000 30 28 19
2.024280e-001 -3.516031e-001 -1.354119e+000 100 120 112
3.705125e-001 -2.937497e-001 -1.393916e+000 65 92 86
3.673215e-001 -3.094426e-001 -1.432686e+000 85 93 98
3.270113e-001 -3.417177e-001 -1.395813e+000 117 132 127
3.510794e-001 -3.396672e-001 -1.386398e+000 106 112 100
4.592282e-001 3.301963e-001 -1.809474e+000 111 113 96
3.644227e-001 1.505836e-001 -1.834136e+000 208 241 107
2.893102e-001 -3.360522e-003 -1.526036e+000 103 0 0
2.990077e-001 -2.233599e-002 -1.532158e+000 84 11 7
2.797640e-001 -3.572876e-002 -1.518553e+000 221 225 223
2.133519e-001 -5.613238e-002 -1.465250e+000 214 219 216
2.438232e-001 -5.811912e-002 -1.489745e+000 12 16 16
2.938341e-001 -5.238498e-002 -1.532377e+000 219 220 219
2.650717e-001 -6.432140e-002 -1.508893e+000 210 216 212
2.854526e-001 -7.332161e-002 -1.522250e+000 27 29 27
1.900662e-001 -1.211393e-001 -1.449668e+000 208 203 196
3.477776e-002 -2.420281e-001 -1.400462e+000 84 149 113
6.268589e-002 -3.034097e-001 -1.410438e+000 51 93 62
1.920525e-001 -3.496643e-001 -1.365548e+000 90 106 99
3.107502e-001 -3.368082e-001 -1.402589e+000 42 51 53
1.296198e-001 -3.922878e-001 -1.276722e+000 17 25 24
1.010731e-001 -4.084906e-001 -1.228893e+000 112 112 107
2.233039e-001 4.562528e-001 -1.643139e+000 175 184 180
3.604052e-001 4.979398e-001 -1.762422e+000 149 165 157
8.160386e-003 3.961451e-001 -1.610836e+000 146 139 131
4.146648e-001 3.315948e-001 -1.797790e+000 140 160 134
5.025353e-001 2.092545e-001 -1.893105e+000 138 135 122
5.895134e-001 2.381010e-001 -1.947720e+000 138 131 126
5.600428e-001 2.204440e-001 -1.919380e+000 199 208 197
-4.167341e-002 3.945468e-002 -1.388470e+000 1 68 103
9.924363e-003 5.057431e-002 -1.449579e+000 184 180 191
-4.713417e-003 2.680184e-002 -1.376225e+000 47 57 49
2.086724e-001 1.705216e-002 -1.462608e+000 157 93 59
-4.879494e-002 -1.086864e-001 -1.367952e+000 203 186 152
2.252500e-001 -4.017259e-002 -1.477269e+000 175 176 178
2.978552e-001 -2.513104e-002 -1.533680e+000 62 11 9
2.325140e-001 -5.476988e-002 -1.480220e+000 197 200 193
2.835938e-001 -7.114138e-002 -1.525962e+000 25 25 27
2.798031e-001 -1.024254e-001 -1.513904e+000 216 217 211
-2.292679e-002 -2.528525e-001 -1.334739e+000 192 94 114
6.424109e-002 -2.736862e-001 -1.410110e+000 37 64 42
3.636166e-001 -2.705278e-001 -1.443850e+000 37 43 9
3.796431e-001 -2.703193e-001 -1.479775e+000 143 165 57
2.095706e-001 4.641791e-001 -1.623926e+000 138 135 120
-2.628765e-002 3.664011e-001 -1.569528e+000 83 71 64
-8.600280e-002 1.527128e-001 -1.405756e+000 195 205 167
4.084141e-003 1.641486e-001 -1.462541e+000 193 217 179
-6.433196e-002 1.377179e-001 -1.393606e+000 182 210 164
5.253755e-001 2.312013e-001 -1.897852e+000 107 87 81
6.235817e-001 2.353455e-001 -1.962534e+000 202 203 207
4.977071e-001 1.724468e-001 -1.866617e+000 88 107 58
2.028572e-001 -4.980063e-002 -1.456487e+000 24 22 28
-3.292729e-003 4.290398e-001 -1.586115e+000 138 129 122
2.242585e-001 4.088032e-001 -1.686425e+000 221 239 250
2.649725e-001 2.519998e-001 -1.671563e+000 119 173 92
1.578661e-001 1.581933e-001 -1.647764e+000 22 23 20
4.562305e-001 2.310436e-001 -1.879949e+000 162 175 165
3.622062e-001 2.018500e-001 -1.848543e+000 22 46 18
1.822116e-001 -1.170620e-002 -1.425552e+000 206 208 205
2.233190e-001 -2.654050e-001 -1.455752e+000 127 89 6
3.272944e-001 3.218629e-001 -1.758682e+000 13 12 14
3.690030e-001 2.896008e-001 -1.770498e+000 177 197 117
2.206010e-001 4.542495e-003 -1.520559e+000 215 221 217
1.920346e-001 -5.655618e-002 -1.502295e+000 44 46 47
2.088190e-002 -1.659553e-002 -1.406432e+000 152 164 149
3.579541e-001 1.450363e-001 -1.833477e+000 36 78 12
3.290615e-001 1.191474e-001 -1.784470e+000 173 212 90
3.187988e-001 9.608056e-002 -1.793276e+000 56 100 31
2.841346e-001 -4.025106e-002 -1.527810e+000 77 81 75
5.725432e-001 -3.453206e-001 -1.445467e+000 84 81 70
-3.499906e-002 1.760333e-001 -1.444662e+000 199 202 171
2.193053e-001 -1.853974e-001 -1.468208e+000 32 27 15
2.826719e-001 -1.572272e-001 -1.517372e+000 158 124 123
-1.443469e-001 1.804449e-001 -1.319403e+000 80 55 45
-2.198142e-002 1.561588e-001 -1.439254e+000 172 220 190
5.780547e-001 2.269535e-001 -1.935942e+000 115 95 91
2.346197e-001 -7.635394e-002 -1.483407e+000 71 67 71
-6.194666e-002 -2.423937e-001 -1.360569e+000 192 154 141
1.991198e-001 1.929281e-002 -1.461513e+000 144 82 46
1.818695e-001 -2.435419e-002 -1.448551e+000 44 40 35
2.264243e-001 -7.600459e-002 -1.471609e+000 214 214 209
2.040988e-001 -8.549602e-002 -1.457596e+000 210 210 209
4.012913e-001 -3.996948e-001 -1.276619e+000 92 103 91
4.468301e-002 -1.063526e-002 -1.441341e+000 44 60 54
2.447320e-001 -7.836999e-003 -1.493079e+000 30 29 31
2.017988e-001 -3.897092e-002 -1.455151e+000 214 218 217
2.129944e-001 -1.207088e-001 -1.469367e+000 209 208 204
1.238594e-002 9.377359e-003 -1.419144e+000 80 90 79
2.615155e-001 -1.666060e-001 -1.496763e+000 174 133 132
4.643179e-002 -2.988740e-001 -1.419591e+000 84 149 97
-7.822110e-002 -1.777969e-001 -1.362879e+000 151 32 59
2.729202e-002 -1.986609e-001 -1.410571e+000 32 45 28
5.272037e-001 4.662334e-001 -1.938819e+000 139 144 139
4.858675e-001 2.437916e-001 -1.802038e+000 189 202 200
2.115454e-001 -2.773888e-002 -1.467886e+000 213 217 214
2.753123e-001 -8.418603e-002 -1.515201e+000 37 36 40
2.798827e-001 -9.473288e-002 -1.513631e+000 13 16 16
2.847439e-001 -1.539042e-001 -1.517181e+000 49 41 40
8.045437e-002 -2.627197e-001 -1.433787e+000 92 137 101
5.793785e-002 -2.754684e-001 -1.412798e+000 36 70 46
2.182041e-001 -1.107950e-001 -1.466271e+000 63 64 66
2.432322e-001 -9.943857e-002 -1.489379e+000 24 24 26
-6.562358e-002 6.461993e-002 -1.380187e+000 92 173 200
2.329550e-003 1.509846e-003 -1.394891e+000 126 135 125
3.206836e-001 1.569147e-001 -1.803108e+000 176 194 91
2.547494e-001 -6.932763e-002 -1.497491e+000 200 201 195
3.190249e-001 -1.480389e-001 -1.545206e+000 180 140 137
3.133206e-001 -4.792238e-001 -1.227024e+000 141 140 135
3.142303e-001 1.286417e-001 -1.781013e+000 181 209 89
2.287821e-001 -7.500606e-002 -1.477857e+000 172 172 167
2.762877e-001 -5.001512e-002 -1.512286e+000 22 22 23
2.780328e-001 -1.028538e-001 -1.516069e+000 217 219 212
3.162743e-001 -1.482286e-001 -1.542315e+000 186 145 142
3.120946e-006 -1.995530e-003 -1.391325e+000 154 167 162
2.279153e-001 4.052228e-001 -1.665562e+000 162 162 166
2.088196e-001 3.933721e-001 -1.656301e+000 30 36 36
3.486202e-001 2.965337e-001 -1.737322e+000 244 113 149
2.604955e-001 2.591398e-001 -1.668170e+000 135 175 106
4.857722e-001 2.024732e-001 -1.829122e+000 147 149 124
3.089264e-001 1.838161e-001 -1.843407e+000 196 228 94
3.378344e-001 1.581349e-001 -1.828906e+000 52 100 9
3.562056e-001 1.414341e-001 -1.849888e+000 76 132 49
2.619977e-001 1.038542e-001 -1.754045e+000 98 99 38
1.186438e-002 1.079213e-002 -1.402828e+000 158 172 165
2.133691e-001 -2.175440e-002 -1.469022e+000 177 179 177
2.322129e-001 -1.934711e-002 -1.483103e+000 218 217 213
2.818673e-002 -6.784304e-003 -1.428793e+000 178 191 184
3.384875e-002 -4.738800e-003 -1.431898e+000 151 167 157
2.008413e-001 -5.813571e-002 -1.455320e+000 180 180 178
2.938950e-001 -5.663827e-002 -1.531191e+000 220 224 223
2.087396e-001 -8.026570e-002 -1.463968e+000 98 98 95
2.652575e-001 -7.615036e-002 -1.509908e+000 183 184 179
2.027351e-001 -8.316831e-002 -1.462912e+000 214 212 214
2.198169e-001 -1.015113e-001 -1.466119e+000 61 61 61
2.296723e-001 -1.059264e-001 -1.476501e+000 215 215 210
2.431215e-001 -1.701287e-001 -1.481674e+000 103 78 76
2.256762e-001 -1.784163e-001 -1.468995e+000 158 124 125
8.742375e-002 -2.579874e-001 -1.439854e+000 117 149 117
9.029705e-002 -2.580143e-001 -1.440909e+000 99 128 101
2.209764e-001 -2.635871e-001 -1.460573e+000 138 99 8
3.508226e-001 -2.711672e-001 -1.461760e+000 99 112 54
3.276498e-001 -2.730180e-001 -1.455246e+000 82 89 4
3.399162e-001 -2.736486e-001 -1.458691e+000 120 125 71
3.722270e-001 -2.784084e-001 -1.461025e+000 28 25 13
3.234082e-001 -2.840560e-001 -1.454762e+000 60 52 9
2.849490e-001 -2.889883e-001 -1.444093e+000 173 151 19
4.380814e-002 -3.160834e-001 -1.384054e+000 73 71 68
5.705631e-001 -2.443169e-001 -1.903808e+000 183 185 180
5.199357e-001 -3.630506e-001 -1.352981e+000 34 42 38
6.594739e-001 -3.702052e-001 -1.437532e+000 178 182 174
6.125609e-001 -3.739939e-001 -1.413171e+000 172 174 168
4.646059e-001 -3.922412e-001 -1.300828e+000 110 116 111
3.774760e-001 -4.008857e-001 -1.278103e+000 79 78 75
6.092419e-001 -3.821648e-001 -1.407403e+000 187 188 180
4.107970e-001 -4.242385e-001 -1.367043e+000 145 139 127
2.292874e-001 3.935994e-001 -1.659582e+000 14 29 21
4.385266e-001 3.334924e-001 -1.810208e+000 204 216 216
3.557274e-001 2.623000e-001 -1.697348e+000 206 49 67
2.357189e-001 -9.084903e-002 -1.481641e+000 216 215 210
5.568026e-001 -2.552960e-001 -1.897826e+000 185 195 185
5.338874e-001 -2.600679e-001 -1.882081e+000 184 191 182
4.619723e-001 -3.807638e-001 -1.333179e+000 94 107 106
2.747602e-001 -4.001682e-001 -1.277903e+000 13 13 11
4.513831e-001 -4.281819e-001 -1.298587e+000 157 159 148
4.487835e-001 -4.400510e-001 -1.290407e+000 163 167 152
3.596237e-001 -4.714627e-001 -1.229926e+000 154 154 149
2.130510e-001 3.853163e-001 -1.659558e+000 151 159 167
3.323057e-001 1.652408e-001 -1.847746e+000 107 153 35
2.974857e-001 1.123676e-001 -1.793656e+000 103 145 72
2.905623e-001 -3.100734e-002 -1.529539e+000 222 227 225
2.314879e-001 -9.100469e-002 -1.472376e+000 31 29 32
3.662039e-001 3.048301e-002 -1.938396e+000 117 185 98
2.890691e-001 -9.805415e-002 -1.528895e+000 38 37 42
3.717159e-001 -2.591410e-001 -1.488100e+000 93 89 17
2.203478e-001 -2.626630e-001 -1.458472e+000 135 87 15
3.518946e-001 -2.674377e-001 -1.493578e+000 55 57 2
4.495069e-001 -3.861737e-001 -1.330013e+000 117 132 125
3.896837e-001 -3.999655e-001 -1.283984e+000 59 60 55
6.064816e-001 -3.844417e-001 -1.408022e+000 160 157 153
2.875890e-001 -4.154787e-001 -1.240614e+000 35 36 39
4.143770e-001 -4.360419e-001 -1.318743e+000 162 166 152
4.875939e-001 -4.370645e-001 -1.311854e+000 110 94 87
5.290718e-001 4.447032e-001 -1.919027e+000 107 77 67
2.557901e-001 -6.979737e-002 -1.508380e+000 33 30 37
-7.588775e-002 -2.093455e-001 -1.358395e+000 212 187 166
7.425580e-002 -2.756915e-001 -1.435635e+000 54 64 57
2.341226e-001 -1.176548e-001 -1.463565e+000 129 129 127
3.837443e-002 -2.002561e-001 -1.410731e+000 116 161 116
5.833710e-002 -2.485979e-001 -1.416290e+000 90 165 109
-2.212472e-001 3.614774e-001 -1.413672e+000 156 156 152
-2.200834e-001 3.481541e-001 -1.407741e+000 152 145 146
-2.318001e-001 3.466131e-001 -1.407502e+000 128 118 114
4.457636e-001 3.041621e-001 -1.814772e+000 161 176 166
2.423240e-001 -2.158151e-002 -1.491185e+000 189 164 159
2.623222e-001 -7.901872e-002 -1.506668e+000 22 25 20
-1.622071e-002 -3.188309e-001 -1.391420e+000 125 164 182
2.606356e-001 -2.721570e-001 -1.471999e+000 67 41 2
5.289812e-001 -1.211242e-001 -1.710177e+000 60 46 13
3.490034e-002 -2.242357e-001 -1.413861e+000 122 171 127
-2.394933e-001 3.410247e-001 -1.421134e+000 83 68 70
2.411381e-001 3.952395e-001 -1.663563e+000 142 157 168
-2.071643e-001 3.142928e-001 -1.393839e+000 144 136 136
2.227661e-001 3.765248e-001 -1.659409e+000 26 34 43
-2.086475e-001 2.865487e-001 -1.381005e+000 169 167 165
9.020641e-002 2.800720e-001 -1.610714e+000 233 238 244
-1.313866e-001 1.878114e-001 -1.403612e+000 115 100 105
1.790120e-001 1.389275e-001 -1.641853e+000 89 130 79
1.794096e-001 1.302977e-001 -1.599803e+000 122 59 76
1.816255e-001 1.225617e-001 -1.593468e+000 180 108 138
5.227691e-001 1.161349e-001 -1.940461e+000 75 68 55
1.367496e-001 5.553540e-002 -1.534016e+000 157 172 159
8.243306e-002 3.336708e-002 -1.480749e+000 156 168 157
-5.675802e-002 1.139012e-002 -1.370858e+000 169 147 131
5.527237e-001 3.087396e-002 -1.949072e+000 124 150 127
5.186059e-002 3.493985e-003 -1.444800e+000 109 125 121
3.624720e-001 7.058069e-002 -1.521882e+000 73 108 46
1.254341e-001 1.894852e-002 -1.398539e+000 169 131 124
1.181374e-001 1.328901e-002 -1.396247e+000 183 161 159
1.907736e-001 -3.465567e-002 -1.463565e+000 32 37 39
6.529555e-001 -7.894089e-002 -1.995753e+000 143 151 149
8.979108e-001 -6.211110e-001 -3.178855e+000 111 106 108
4.530307e-002 -2.070839e-001 -1.409354e+000 30 61 30
8.948726e-001 -6.669470e-001 -3.078895e+000 92 85 90
3.680270e-002 -2.431532e-001 -1.403267e+000 57 111 73
3.505076e-001 -2.460383e-001 -1.571974e+000 216 190 87
-1.062572e-003 -3.146179e-001 -1.410535e+000 55 116 128
1.066349e+000 -7.123850e-001 -3.026664e+000 101 92 95
9.206472e-001 -7.394588e-001 -2.913134e+000 107 91 97
-4.028678e-002 -3.768243e-001 -1.410297e+000 134 134 137
3.449835e-001 -2.626995e-001 -1.486778e+000 200 214 120
1.058035e+000 -7.298966e-001 -2.933014e+000 116 107 110
3.482363e-001 -2.623717e-001 -1.474959e+000 51 71 17
3.861273e-001 -2.606668e-001 -1.495049e+000 54 68 2
3.671101e-001 -2.648963e-001 -1.477400e+000 160 182 103
1.004575e-001 -3.332873e-001 -1.380408e+000 81 111 99
1.122931e+000 -7.448772e-001 -2.924491e+000 90 75 84
2.131110e-001 -3.272520e-001 -1.405000e+000 49 35 19
1.532551e-001 -3.344545e-001 -1.354016e+000 62 61 68
1.596992e-001 -3.323293e-001 -1.354139e+000 65 70 88
2.182100e-001 -3.280641e-001 -1.368511e+000 74 72 75
1.136061e+000 -7.713739e-001 -2.846283e+000 136 122 127
9.878230e-001 -8.056971e-001 -2.782012e+000 102 90 101
2.277143e-001 -3.399380e-001 -1.386899e+000 153 164 158
1.093080e+000 -7.822364e-001 -2.813063e+000 102 78 83
8.088783e-002 -3.709012e-001 -1.312911e+000 113 128 121
3.055671e-001 -3.234917e-001 -1.410987e+000 107 109 106
1.888493e-001 -3.443764e-001 -1.351375e+000 135 122 88
1.545383e-001 -3.686964e-001 -1.332941e+000 94 121 106
2.391177e-001 4.021947e-001 -1.661586e+000 55 83 87
2.235226e-001 3.932555e-001 -1.661170e+000 20 34 37
2.321367e-001 3.740847e-001 -1.656832e+000 179 207 218
2.448891e-001 1.029996e-001 -1.556629e+000 108 147 83
6.111624e-001 -4.208104e-001 -3.704590e+000 21 16 19
2.760534e-001 -1.041038e-001 -1.512906e+000 216 214 211
1.947663e-001 -3.097656e-001 -1.449805e+000 106 111 102
2.085302e-001 -3.106419e-001 -1.443885e+000 29 23 17
-2.428129e-001 2.951934e-001 -1.393278e+000 105 81 81
2.336986e-002 2.406391e-001 -1.539906e+000 68 183 218
-1.313577e-001 1.958985e-001 -1.397926e+000 95 76 75
1.637476e-001 1.277951e-001 -1.634867e+000 53 132 142
1.625618e-002 6.741711e-002 -1.461006e+000 182 77 110
7.344725e-002 1.246146e-002 -1.437855e+000 183 172 144
2.356646e-001 -7.957504e-002 -1.482758e+000 29 28 34
9.480673e-002 -2.765466e-001 -1.448445e+000 102 136 111
2.467251e-001 -2.791257e-001 -1.479505e+000 71 48 8
3.885072e-001 -2.601710e-001 -1.486715e+000 71 90 22
-2.705659e-003 2.997449e-001 -1.578804e+000 173 172 161
-1.401330e-001 2.075208e-001 -1.395707e+000 49 36 27
2.866547e-002 2.047959e-001 -1.534854e+000 182 223 188
-6.392189e-002 1.475532e-001 -1.390640e+000 209 206 166
-1.310224e-001 1.084201e-001 -1.327387e+000 178 199 149
1.920037e-001 6.800501e-002 -1.591288e+000 207 194 154
4.640563e-003 -1.888222e-002 -1.399516e+000 80 96 85
2.471413e-001 -1.112721e-002 -1.498220e+000 55 28 26
2.025673e-001 -5.612824e-002 -1.465869e+000 29 33 34
-8.673994e-002 -1.572400e-001 -1.348724e+000 115 181 188
-1.571868e-001 1.836779e-001 -1.387828e+000 205 225 218
7.763485e-002 7.210072e-002 -1.517094e+000 225 239 242
1.624074e-001 1.240644e-001 -1.539080e+000 231 242 244
1.770271e-001 -9.298619e-002 -1.463771e+000 202 200 191
3.051426e-001 -9.439111e-002 -1.538173e+000 191 188 184
5.219041e-001 5.511452e-001 -1.935209e+000 201 203 208
2.085564e-002 -9.645835e-003 -1.402790e+000 157 168 160
-6.019141e-002 -9.742995e-002 -1.374458e+000 194 184 145
6.746127e-002 -1.565542e-001 -1.430547e+000 106 142 99
3.039408e-001 -1.490282e-001 -1.520538e+000 173 130 127
2.191151e-001 -1.180999e-001 -1.469205e+000 212 214 207
2.163160e-001 -1.427447e-001 -1.501850e+000 25 24 20
6.046941e-002 -2.103402e-001 -1.439257e+000 40 38 35
5.424205e-001 5.209822e-001 -1.902052e+000 107 92 93
1.722044e-001 1.297287e-001 -1.615013e+000 112 209 219
1.524583e-002 7.101458e-002 -1.461877e+000 170 71 107
5.333270e-001 1.432193e-001 -1.940837e+000 41 43 30
2.870262e-001 7.040633e-002 -1.538031e+000 182 160 141
5.983646e-001 -1.113451e-002 -1.951674e+000 106 116 116
2.505215e-001 -3.229357e-001 -1.414428e+000 90 113 100
3.060970e-001 -3.281355e-001 -1.397131e+000 135 146 141
2.088593e-001 -2.390854e-002 -1.464273e+000 205 207 206
3.664100e-001 -2.676710e-001 -1.495244e+000 42 52 11
1.060802e-001 2.178015e-001 -1.592516e+000 204 230 193
4.303891e-001 -5.478561e-002 -2.014130e+000 108 101 98
6.430489e-002 -1.663316e-001 -1.432399e+000 114 162 96
3.927116e-002 -2.112031e-001 -1.398587e+000 104 156 106
2.628231e-001 -1.655330e-001 -1.496711e+000 178 136 135
2.239316e-001 4.718003e-001 -1.695600e+000 183 195 187
2.137632e-001 4.630108e-001 -1.680270e+000 181 188 182
5.146429e-001 5.483272e-001 -2.015942e+000 108 109 105
-1.488289e-001 1.401137e-001 -1.291052e+000 208 118 138
4.968700e-001 4.151123e-001 -1.888530e+000 156 154 151
4.880485e-001 3.822699e-001 -1.828581e+000 178 185 179
4.909227e-001 3.834519e-001 -1.832288e+000 170 177 172
