ply
format ascii 1.0
element face 0
property list uchar int vertex_indices
element vertex 856
property float x
property float y
property float z
property uchar diffuse_red
property uchar diffuse_green
property uchar diffuse_blue
end_header
-4.094448e-001 -5.217231e-001 -2.233876e+000 108 107 82
-3.308479e-002 3.568505e-001 -2.131310e+000 175 162 174
-4.326256e-002 3.502837e-001 -2.123790e+000 153 144 146
1.608858e-001 -1.154238e-001 -2.271286e+000 117 128 123
-4.787923e-001 -2.489985e-001 -2.174251e+000 124 121 150
-4.457497e-001 -2.587033e-001 -2.192204e+000 197 199 196
3.103415e-001 -2.828845e-001 -2.351852e+000 145 154 149
2.507214e-001 -3.062654e-001 -2.334348e+000 70 70 64
1.050955e-001 -3.476855e-001 -2.351157e+000 89 89 87
1.060214e-001 -3.747475e-001 -2.349398e+000 87 92 88
1.837784e-001 -4.021749e-001 -2.367701e+000 120 124 122
9.894987e-002 -2.159090e-001 -2.266401e+000 86 90 91
-4.922084e-001 -2.197461e-001 -2.173820e+000 120 119 113
-4.824465e-001 -2.286520e-001 -2.164622e+000 172 170 160
2.267898e-001 -3.377808e-001 -2.354421e+000 126 127 121
1.170688e-001 -3.618960e-001 -2.342077e+000 52 52 50
-1.871623e-001 -3.546607e-001 -2.234736e+000 44 43 41
-2.025664e-001 -3.591993e-001 -2.236239e+000 57 56 51
2.383861e-001 -3.892934e-001 -2.358818e+000 87 84 79
-1.461769e-001 -3.815862e-001 -2.274762e+000 74 74 70
1.809784e-001 -4.242830e-001 -2.385481e+000 103 108 102
5.722245e-001 -3.169694e-002 -2.413650e+000 20 23 31
1.798675e-001 -3.970275e-001 -2.355142e+000 112 120 115
1.928875e-001 -4.024548e-001 -2.373611e+000 45 47 43
-7.473401e-002 3.564799e-001 -2.117463e+000 215 205 214
-6.841387e-002 3.544116e-001 -2.118843e+000 198 192 203
-8.549244e-002 3.474992e-001 -2.115493e+000 183 167 176
-7.061800e-002 3.426277e-001 -2.119417e+000 165 148 148
-9.494526e-002 3.317312e-001 -2.110416e+000 172 170 166
-7.055144e-002 3.348718e-001 -2.116483e+000 187 187 208
-6.774481e-002 3.361189e-001 -2.119748e+000 198 202 222
-4.678147e-002 3.355326e-001 -2.122094e+000 192 191 204
-4.532876e-002 3.327035e-001 -2.124200e+000 176 173 169
-5.497312e-002 3.299515e-001 -2.122458e+000 178 181 185
-7.874790e-002 3.257609e-001 -2.122498e+000 176 176 178
-6.725188e-002 3.155897e-001 -2.120473e+000 114 113 118
-1.020499e-001 3.066126e-001 -2.115757e+000 152 154 156
-1.423273e-001 2.696530e-001 -2.124724e+000 107 110 114
-6.304208e-002 2.666952e-001 -2.145893e+000 153 150 145
-2.276806e-001 -1.074737e-001 -2.169156e+000 143 147 151
-1.899573e-001 -1.561119e-001 -2.182275e+000 136 140 140
5.684234e-001 -1.096833e-001 -2.378778e+000 77 79 78
2.038016e-001 -1.569945e-001 -2.272583e+000 212 205 209
2.001941e-001 -1.584859e-001 -2.269563e+000 244 237 242
6.100116e-001 -1.108856e-001 -2.390743e+000 105 105 109
-1.422509e-001 -2.062525e-001 -2.208859e+000 110 109 105
-1.065559e-001 -2.013714e-001 -2.237958e+000 188 185 195
-9.794940e-002 -2.183756e-001 -2.242323e+000 220 225 233
-1.021320e-001 -2.402013e-001 -2.233440e+000 134 139 148
-8.276245e-002 -2.434519e-001 -2.246995e+000 193 197 204
-7.638112e-002 -2.508691e-001 -2.248802e+000 200 198 209
2.997901e-001 -2.195300e-001 -2.339875e+000 107 113 111
-6.316686e-002 -2.709631e-001 -2.259036e+000 209 209 216
3.327383e-001 -2.591796e-001 -2.361100e+000 96 106 98
3.088806e-001 -2.661475e-001 -2.347725e+000 101 103 99
3.320927e-001 -2.644854e-001 -2.362217e+000 67 74 73
-2.401534e-001 -3.555852e-001 -2.220412e+000 53 47 44
-2.528384e-001 -3.582695e-001 -2.218740e+000 116 107 103
-2.315905e-001 -3.575847e-001 -2.221216e+000 113 102 98
3.714204e-002 -3.697176e-001 -2.310056e+000 96 98 94
2.763971e-001 -3.517261e-001 -2.366877e+000 103 98 92
2.651979e-003 -3.882015e-001 -2.301749e+000 90 86 83
8.958487e-003 -3.905780e-001 -2.303746e+000 90 85 81
2.370028e-002 -3.978654e-001 -2.310717e+000 98 97 90
-4.259391e-002 -4.121173e-001 -2.303274e+000 141 134 129
2.905681e-001 -3.741785e-001 -2.382240e+000 113 113 104
1.542507e-001 -3.867309e-001 -2.362436e+000 67 68 63
1.597999e-001 -3.878101e-001 -2.364215e+000 117 119 115
1.639226e-001 -3.885999e-001 -2.364459e+000 70 72 69
2.839860e-001 -3.823213e-001 -2.385446e+000 105 106 101
5.832351e-002 -4.092223e-001 -2.328246e+000 77 72 69
7.114251e-002 -4.131316e-001 -2.333190e+000 69 68 64
1.914016e-001 -3.992052e-001 -2.370624e+000 45 43 44
1.016398e-002 -4.222628e-001 -2.325698e+000 137 131 126
1.480815e-001 -4.066005e-001 -2.355573e+000 90 88 91
1.924478e-001 -4.152090e-001 -2.369333e+000 130 130 125
2.737368e-001 -4.148563e-001 -2.389894e+000 82 82 77
2.258444e-001 -4.291811e-001 -2.373165e+000 99 99 97
2.292350e-001 -3.040205e-001 -2.324264e+000 70 68 57
-1.890702e-001 -3.791374e-001 -2.252619e+000 143 140 134
2.527344e-001 -3.658495e-001 -2.367524e+000 121 121 113
1.275227e-001 -4.033042e-001 -2.350071e+000 109 106 106
2.105652e-001 -4.059444e-001 -2.373296e+000 43 42 39
1.692494e-001 -4.203943e-001 -2.363871e+000 136 137 134
1.079949e-001 -2.489604e-001 -2.277202e+000 95 94 90
-1.748887e-001 -3.267446e-001 -2.221910e+000 76 75 79
2.296033e-001 -3.004904e-001 -2.328783e+000 73 68 62
2.133985e-001 -3.251219e-001 -2.338205e+000 58 56 45
-1.494247e-001 -3.773694e-001 -2.259965e+000 74 70 69
2.100396e-002 -3.956785e-001 -2.311449e+000 98 90 87
1.544004e-001 -3.861171e-001 -2.362811e+000 56 57 52
1.429606e-001 -3.927836e-001 -2.363100e+000 96 96 93
1.820189e-001 -3.901339e-001 -2.365048e+000 100 101 96
2.817805e-001 -3.927058e-001 -2.388107e+000 121 120 118
1.716146e-001 -4.208500e-001 -2.364829e+000 147 146 141
-3.991565e-002 -3.705980e-001 -2.283796e+000 65 64 62
1.861549e-001 -3.823957e-001 -2.363974e+000 25 25 23
1.605446e-001 -4.139255e-001 -2.362439e+000 60 56 56
-3.793888e-001 -2.621954e-001 -2.180720e+000 114 123 116
-6.991881e-002 -2.362976e-001 -2.248949e+000 157 162 152
-2.357065e-001 -3.422405e-001 -2.211346e+000 51 43 46
2.390484e-001 -3.632497e-001 -2.353787e+000 145 147 142
2.819328e-001 -3.673519e-001 -2.374268e+000 53 48 45
2.071420e-001 -1.532382e-001 -2.274711e+000 254 250 254
-8.220481e-002 3.802484e-001 -2.122342e+000 193 187 196
-7.668792e-002 3.787768e-001 -2.121042e+000 192 189 197
-7.139453e-002 3.748077e-001 -2.120577e+000 214 208 217
-1.957241e-001 3.731820e-001 -2.130979e+000 137 138 142
-7.323360e-002 3.693555e-001 -2.120277e+000 145 139 151
-3.353025e-002 3.706304e-001 -2.131709e+000 219 216 221
-2.040128e-002 3.726454e-001 -2.141745e+000 180 172 182
-2.755142e-002 3.684785e-001 -2.134240e+000 204 199 203
-8.049534e-002 3.608536e-001 -2.116875e+000 209 204 215
-2.143393e-002 3.643442e-001 -2.135369e+000 245 238 245
-2.084562e-001 3.547171e-001 -2.136458e+000 187 180 197
-8.510284e-003 3.566973e-001 -2.145354e+000 192 186 197
-3.619240e-002 3.303626e-001 -2.127657e+000 169 170 164
-7.868600e-002 3.103497e-001 -2.117811e+000 153 157 154
-1.463795e-002 2.817825e-001 -2.168853e+000 105 109 110
-1.416760e-001 2.699794e-001 -2.128095e+000 93 102 101
-2.063562e-001 2.678117e-001 -2.147975e+000 130 135 133
-1.783713e-002 2.630061e-001 -2.185380e+000 104 109 106
-3.009419e-001 -9.575169e-003 -2.175458e+000 101 110 107
-2.895993e-001 -9.496936e-003 -2.178290e+000 127 134 127
-3.061815e-001 -1.534584e-002 -2.170416e+000 103 112 109
-3.724987e-001 -3.503017e-002 -2.153288e+000 100 106 106
-3.336770e-001 -3.692435e-002 -2.156375e+000 100 108 106
-2.646182e-001 -3.946342e-002 -2.173367e+000 135 139 138
-2.742575e-001 -4.641238e-002 -2.170120e+000 100 108 104
-4.051646e-001 -4.809995e-002 -2.151630e+000 194 190 190
-3.734764e-001 -5.164246e-002 -2.148326e+000 140 151 146
-3.984946e-001 -6.240964e-002 -2.147808e+000 213 210 214
-3.447069e-001 -6.290195e-002 -2.148313e+000 105 113 116
2.258591e-001 -7.390444e-002 -2.310935e+000 172 168 173
2.106422e-001 -8.882432e-002 -2.300971e+000 223 222 221
-3.780322e-001 -8.885841e-002 -2.143031e+000 181 175 176
-3.780723e-001 -9.221536e-002 -2.144859e+000 219 213 215
2.263230e-001 -1.146421e-001 -2.308084e+000 153 152 171
2.146377e-001 -1.231079e-001 -2.292456e+000 205 206 208
2.526137e-001 -1.267622e-001 -2.320966e+000 99 104 99
2.340580e-001 -1.325309e-001 -2.303228e+000 197 196 202
2.022480e-001 -1.328220e-001 -2.277055e+000 198 197 193
-1.678050e-001 -1.348432e-001 -2.196608e+000 216 215 220
8.379546e-002 -1.388220e-001 -2.271328e+000 98 108 106
2.014959e-001 -1.370383e-001 -2.274243e+000 248 247 243
9.030559e-002 -1.419613e-001 -2.270169e+000 88 97 94
8.034206e-002 -1.488666e-001 -2.274067e+000 118 129 128
7.207355e-002 -1.513855e-001 -2.278522e+000 110 121 117
1.978635e-001 -1.533388e-001 -2.271823e+000 151 151 146
2.585711e-001 -1.581060e-001 -2.315346e+000 212 215 223
1.205634e-001 -1.558106e-001 -2.257325e+000 110 119 118
2.657364e-001 -1.672007e-001 -2.318299e+000 194 200 208
2.333114e-001 -1.672040e-001 -2.289313e+000 175 173 185
2.188741e-001 -1.732859e-001 -2.275881e+000 225 226 230
2.473981e-001 -1.758369e-001 -2.303342e+000 181 185 188
2.706797e-001 -1.769076e-001 -2.320257e+000 165 176 179
-2.247716e-001 -1.708170e-001 -2.164009e+000 123 130 126
2.749312e-001 -1.910747e-001 -2.316655e+000 171 176 179
-5.061747e-001 -1.989916e-001 -2.175122e+000 239 237 243
-5.171597e-001 -2.047740e-001 -2.180071e+000 183 181 194
3.382896e-001 -2.242077e-001 -2.336262e+000 71 77 67
2.875215e-001 -2.258278e-001 -2.331216e+000 84 95 91
-5.159945e-001 -2.253798e-001 -2.185561e+000 165 162 180
9.775396e-002 -2.318257e-001 -2.269948e+000 114 118 117
-5.171845e-001 -2.326902e-001 -2.184705e+000 162 159 168
2.903358e-001 -2.439500e-001 -2.336718e+000 88 97 92
-4.964702e-001 -2.344837e-001 -2.177338e+000 212 212 223
-4.872709e-001 -2.341975e-001 -2.173682e+000 196 190 215
-4.540865e-001 -2.377540e-001 -2.208279e+000 98 108 100
-5.127823e-001 -2.384520e-001 -2.185218e+000 158 156 159
-5.358188e-001 -2.405002e-001 -2.199747e+000 180 174 186
-5.072072e-001 -2.406523e-001 -2.183794e+000 205 205 210
-5.049263e-001 -2.408663e-001 -2.184468e+000 132 132 130
-4.071338e-001 -2.424443e-001 -2.214932e+000 61 67 62
-4.198354e-001 -2.455260e-001 -2.218039e+000 98 106 97
-4.908841e-001 -2.428120e-001 -2.179497e+000 160 158 167
-4.041557e-001 -2.467569e-001 -2.219358e+000 112 116 115
-5.005833e-001 -2.444622e-001 -2.181580e+000 164 162 163
-4.391709e-001 -2.478516e-001 -2.208056e+000 107 115 112
1.255540e-001 -2.520227e-001 -2.278341e+000 122 124 120
-4.946166e-001 -2.468012e-001 -2.179178e+000 144 142 145
-1.210640e-001 -2.499249e-001 -2.223735e+000 123 133 134
-5.205929e-001 -2.518045e-001 -2.195876e+000 177 171 187
-5.004274e-001 -2.501813e-001 -2.182942e+000 165 163 170
3.092980e-001 -2.665862e-001 -2.352290e+000 91 102 97
-4.762011e-001 -2.533626e-001 -2.179164e+000 152 151 177
-3.852949e-001 -2.594931e-001 -2.202855e+000 78 83 79
2.282554e-001 -2.676300e-001 -2.307600e+000 106 108 107
-3.792665e-001 -2.626686e-001 -2.198313e+000 87 92 86
-5.854349e-002 -2.730442e-001 -2.264634e+000 167 174 173
-6.513855e-002 -2.740319e-001 -2.256312e+000 189 194 197
1.836280e-001 -2.821108e-001 -2.295737e+000 77 78 72
-3.876817e-001 -2.774189e-001 -2.184614e+000 149 149 137
2.006785e-001 -2.894276e-001 -2.306072e+000 96 97 89
3.304330e-001 -2.979891e-001 -2.365317e+000 76 82 78
2.264940e-001 -2.966295e-001 -2.319957e+000 75 72 68
2.332087e-001 -3.007107e-001 -2.319853e+000 77 76 71
2.510678e-001 -3.059814e-001 -2.334275e+000 79 79 72
-7.536373e-002 -3.108736e-001 -2.251664e+000 118 127 128
2.134118e-001 -3.241474e-001 -2.341594e+000 49 49 40
-1.353270e-001 -3.253502e-001 -2.237218e+000 101 106 106
1.682012e-001 -3.524703e-001 -2.342427e+000 103 103 96
1.201665e-001 -3.561263e-001 -2.353681e+000 70 70 70
2.833555e-001 -3.618737e-001 -2.372896e+000 109 110 105
7.971158e-001 -3.788911e-001 -2.487038e+000 114 115 102
-2.364761e-001 -3.408613e-001 -2.214481e+000 59 60 54
2.391085e-001 -3.633385e-001 -2.356883e+000 134 141 137
-8.507477e-002 -3.518759e-001 -2.262461e+000 104 108 112
-2.522704e-002 -3.572524e-001 -2.283289e+000 108 111 106
-2.352693e-001 -3.500788e-001 -2.220674e+000 149 146 139
-2.044162e-001 -3.602463e-001 -2.240902e+000 75 73 68
7.738449e-001 -3.945923e-001 -2.461328e+000 221 219 208
-2.345005e-002 -3.687759e-001 -2.285322e+000 133 135 131
-1.253544e-001 -3.736944e-001 -2.257322e+000 106 104 107
-2.174524e-002 -3.764517e-001 -2.282688e+000 81 84 81
7.199552e-001 -4.036548e-001 -2.442613e+000 106 103 93
-2.512175e-001 -3.736858e-001 -2.233875e+000 138 137 124
7.428389e-001 -4.052890e-001 -2.442922e+000 154 144 134
-1.635283e-001 -3.775768e-001 -2.255552e+000 134 137 130
7.102742e-001 -4.090206e-001 -2.440456e+000 153 149 127
7.261842e-001 -4.046028e-001 -2.426263e+000 75 68 68
2.094522e-001 -4.007052e-001 -2.369035e+000 65 65 63
-3.128293e-001 -3.823399e-001 -2.227629e+000 137 130 116
7.017981e-001 -4.144766e-001 -2.424507e+000 137 138 114
-2.751397e-001 -3.885819e-001 -2.240785e+000 123 121 106
-7.763429e-002 -4.015720e-001 -2.288137e+000 109 110 105
-4.162513e-002 -4.122985e-001 -2.304074e+000 115 114 109
1.161570e-001 -4.254729e-001 -2.350053e+000 136 136 134
1.155953e-002 -4.229671e-001 -2.326132e+000 98 97 94
1.777028e-001 -4.312109e-001 -2.371465e+000 106 109 104
-1.574396e-001 -4.246524e-001 -2.294177e+000 105 106 101
1.167855e-001 -4.380284e-001 -2.359330e+000 76 78 75
1.280055e-001 -4.379244e-001 -2.343881e+000 68 70 67
3.554258e-001 -4.622258e-001 -2.356156e+000 252 244 237
7.385617e-002 -4.799407e-001 -2.321371e+000 99 104 98
-3.931112e-002 -4.894941e-001 -2.300970e+000 77 81 79
2.310970e-002 -4.935846e-001 -2.312827e+000 171 169 149
-3.246959e-001 -5.069873e-001 -2.264882e+000 96 98 93
-1.980588e-001 -5.108388e-001 -2.260598e+000 88 93 88
-4.050008e-001 -5.232303e-001 -2.235848e+000 171 170 159
-1.199144e-002 3.601795e-001 -2.143328e+000 150 137 146
2.142165e-001 -9.085431e-002 -2.305917e+000 255 253 254
-4.117023e-001 -9.669094e-002 -2.173389e+000 185 176 184
2.143357e-001 -1.638462e-001 -2.276337e+000 184 178 187
-4.970366e-001 -1.794378e-001 -2.164478e+000 134 132 119
-4.941049e-001 -2.131765e-001 -2.163821e+000 223 219 219
-5.069066e-001 -2.320865e-001 -2.181546e+000 129 127 140
-4.047725e-001 -2.405788e-001 -2.218862e+000 70 72 71
2.017424e-001 -3.324699e-001 -2.345719e+000 33 34 26
1.987364e-001 -3.479749e-001 -2.352645e+000 90 92 85
1.685248e-001 -4.124408e-001 -2.320681e+000 127 130 123
-3.072278e-002 3.551083e-001 -2.126530e+000 171 161 172
-1.189039e-003 3.557781e-001 -2.152156e+000 234 231 227
-3.730939e-001 -6.013218e-002 -2.150429e+000 106 116 112
2.155875e-001 -7.998590e-002 -2.306711e+000 252 251 248
2.193588e-001 -9.249672e-002 -2.316942e+000 255 254 255
-4.420867e-001 -1.018106e-001 -2.138683e+000 254 251 254
2.347217e-001 -1.198424e-001 -2.311489e+000 154 156 178
-4.591988e-001 -1.240160e-001 -2.180084e+000 222 219 210
2.329272e-001 -1.695037e-001 -2.292947e+000 212 210 217
-5.021007e-001 -2.381008e-001 -2.197361e+000 125 123 138
-4.793810e-001 -2.425242e-001 -2.178247e+000 254 253 252
-3.851060e-001 -2.792385e-001 -2.198167e+000 144 145 141
-1.746767e-001 -3.245245e-001 -2.220710e+000 70 73 72
-1.855997e-001 -3.473130e-001 -2.225853e+000 70 70 68
-5.552606e-002 -3.633207e-001 -2.275369e+000 68 73 69
-1.784172e-001 -3.596197e-001 -2.243659e+000 135 136 131
1.858271e-001 -3.826564e-001 -2.360968e+000 17 18 19
-1.782302e-001 -3.793468e-001 -2.255393e+000 64 65 59
6.990831e-001 -4.201471e-001 -2.419241e+000 58 56 46
-5.134382e-001 -2.470628e-001 -2.205687e+000 186 186 196
-3.897811e-001 -2.735290e-001 -2.197828e+000 137 138 127
5.166434e-001 -3.107617e-001 -2.367329e+000 81 91 82
-1.389619e-001 -3.802362e-001 -2.262478e+000 61 60 58
2.136071e-001 -4.003278e-001 -2.365779e+000 26 26 24
6.942508e-001 -4.199223e-001 -2.407961e+000 57 62 49
8.942280e-002 -4.130427e-001 -2.320646e+000 39 40 39
-3.879971e-001 -2.681321e-001 -2.199144e+000 115 120 115
-1.755999e-001 -3.690065e-001 -2.254726e+000 68 67 63
-4.908587e-001 -1.679778e-001 -2.167864e+000 141 138 132
-4.269217e-001 -2.662339e-001 -2.223400e+000 254 254 255
5.215140e-002 3.563006e-001 -2.234396e+000 121 121 121
6.845289e-002 3.159058e-001 -2.247263e+000 138 139 141
5.197045e-003 2.454909e-001 -2.216839e+000 138 135 134
8.316217e-003 2.470089e-001 -2.219903e+000 99 92 93
-7.777412e-003 2.304211e-001 -2.223608e+000 125 124 130
-2.683351e-001 -1.687412e-001 -2.154471e+000 116 120 123
2.015411e-001 -1.374423e-001 -2.274482e+000 210 205 209
2.512932e-001 -1.269683e-001 -2.316673e+000 99 101 98
2.051623e-001 -1.435318e-001 -2.274633e+000 193 187 189
-1.375668e-001 -1.766298e-001 -2.215041e+000 114 117 118
1.198490e-001 -1.559494e-001 -2.254218e+000 120 125 127
2.420393e-001 -1.451573e-001 -2.300497e+000 196 193 201
1.873714e-001 -1.607638e-001 -2.259334e+000 157 161 162
1.622630e-001 -1.654362e-001 -2.256145e+000 125 126 131
2.044487e-001 -1.624265e-001 -2.269781e+000 255 249 254
2.056241e-001 -1.644776e-001 -2.272800e+000 175 165 174
1.951634e-001 -1.739715e-001 -2.261396e+000 133 136 140
2.002423e-001 -1.731678e-001 -2.268909e+000 145 145 151
2.611111e-001 -1.589909e-001 -2.315764e+000 131 132 136
2.169916e-001 -1.734095e-001 -2.276301e+000 216 212 217
2.450500e-001 -1.757631e-001 -2.294231e+000 180 178 180
2.392052e-001 -1.814581e-001 -2.289288e+000 166 167 166
2.581041e-001 -1.768784e-001 -2.309644e+000 180 186 186
5.743853e-001 -1.436343e-001 -2.393682e+000 59 60 57
2.491813e-001 -1.879964e-001 -2.297865e+000 129 128 133
2.541115e-001 -1.879701e-001 -2.301137e+000 196 199 204
-1.176613e-001 -2.362562e-001 -2.220980e+000 129 132 136
5.952332e-001 -1.556592e-001 -2.410113e+000 82 84 83
2.725761e-001 -1.925034e-001 -2.329174e+000 166 170 171
5.661457e-001 -1.633610e-001 -2.407311e+000 97 99 94
2.587268e-001 -2.057696e-001 -2.308060e+000 122 125 125
-1.214221e-001 -2.495491e-001 -2.221965e+000 125 129 138
3.049263e-001 -2.061221e-001 -2.345305e+000 127 132 135
2.990271e-001 -2.111139e-001 -2.339700e+000 104 110 107
6.173656e-001 -1.791221e-001 -2.432510e+000 72 72 72
2.873643e-001 -2.258433e-001 -2.333043e+000 91 95 94
5.915182e-001 -1.877483e-001 -2.432853e+000 96 97 98
3.143683e-001 -2.249123e-001 -2.348271e+000 66 71 67
-6.023975e-002 -2.720366e-001 -2.259886e+000 190 188 196
2.468981e-001 -2.510774e-001 -2.305317e+000 137 136 136
2.311677e-001 -2.584121e-001 -2.293797e+000 131 127 126
6.578805e-001 -1.979280e-001 -2.454212e+000 68 70 66
2.116621e-001 -2.823487e-001 -2.304285e+000 113 103 101
3.193009e-001 -2.661001e-001 -2.353664e+000 107 109 103
-1.727611e-001 -3.239429e-001 -2.220759e+000 65 64 69
5.521295e-001 -2.344354e-001 -2.459082e+000 65 63 59
-1.744992e-001 -3.291766e-001 -2.220026e+000 73 72 73
1.762126e-001 -2.934873e-001 -2.307400e+000 108 101 95
-4.308585e-001 -3.533125e-001 -2.210967e+000 127 110 103
2.117353e-001 -2.939941e-001 -2.312252e+000 73 68 62
6.570868e-001 -2.353048e-001 -2.479067e+000 50 52 49
2.265256e-001 -2.958177e-001 -2.316711e+000 65 58 48
-2.393465e-001 -3.473113e-001 -2.217507e+000 66 55 54
2.459615e-001 -3.071678e-001 -2.327069e+000 89 81 78
3.347384e-001 -2.944980e-001 -2.361859e+000 100 102 99
2.383144e-001 -3.070406e-001 -2.331440e+000 87 82 76
2.527587e-001 -3.065014e-001 -2.330884e+000 62 58 47
-2.055672e-001 -3.559940e-001 -2.234421e+000 91 84 74
6.839054e-001 -2.539145e-001 -2.493351e+000 71 70 68
1.634004e-001 -3.189760e-001 -2.337190e+000 115 112 104
2.543482e-001 -3.140495e-001 -2.338014e+000 140 137 125
6.118754e-001 -2.631064e-001 -2.490184e+000 91 90 88
2.475450e-001 -3.171315e-001 -2.336427e+000 95 92 81
2.774988e-001 -3.134287e-001 -2.346784e+000 132 131 123
-2.030981e-001 -3.665624e-001 -2.235816e+000 71 67 60
2.593460e-001 -3.183083e-001 -2.340400e+000 87 85 72
-2.073485e-001 -3.719145e-001 -2.243102e+000 96 92 83
-2.022605e-001 -3.746825e-001 -2.245631e+000 79 75 69
-1.788989e-001 -3.718635e-001 -2.249310e+000 128 120 118
-1.952319e-001 -3.767984e-001 -2.244703e+000 143 141 124
2.569461e-001 -3.280204e-001 -2.352057e+000 123 121 108
2.514079e-001 -3.309124e-001 -2.351907e+000 79 73 64
-1.252146e-001 -3.740270e-001 -2.258990e+000 106 102 100
2.025259e-002 -3.562385e-001 -2.300225e+000 120 120 121
1.810309e-001 -3.402872e-001 -2.352319e+000 87 86 83
1.067309e-001 -3.490127e-001 -2.350484e+000 122 120 121
2.201813e-001 -3.414888e-001 -2.356917e+000 121 116 110
-2.530580e-001 -3.977309e-001 -2.252280e+000 61 52 48
1.680801e-001 -3.525675e-001 -2.341604e+000 122 119 115
2.001623e-001 -3.493686e-001 -2.353420e+000 121 120 116
-1.999624e-002 -3.782849e-001 -2.290166e+000 87 82 78
-1.733488e-001 -3.942177e-001 -2.265196e+000 97 92 88
-2.679237e-001 -4.058304e-001 -2.254968e+000 115 106 91
2.321857e-001 -3.659022e-001 -2.351398e+000 133 133 130
-1.906050e-001 -4.140652e-001 -2.275544e+000 112 103 104
1.857016e-002 -3.955170e-001 -2.307952e+000 77 78 75
-1.924737e-001 -4.230763e-001 -2.291212e+000 121 115 112
1.810556e-001 -3.906388e-001 -2.367472e+000 131 131 127
2.335740e-001 -3.885996e-001 -2.356482e+000 133 125 123
2.372606e-001 -3.936793e-001 -2.361653e+000 118 115 106
1.910736e-001 -4.007789e-001 -2.369292e+000 53 51 52
2.026866e-001 -4.009738e-001 -2.368727e+000 133 132 127
2.096421e-001 -4.011731e-001 -2.370423e+000 102 99 92
1.975977e-001 -4.059282e-001 -2.369334e+000 78 79 72
-4.704009e-002 -4.354641e-001 -2.326846e+000 116 111 108
6.650429e-002 -4.229611e-001 -2.351385e+000 100 90 92
1.899839e-001 -4.107560e-001 -2.369193e+000 80 81 76
2.274505e-001 -4.093554e-001 -2.373871e+000 102 102 92
2.482387e-001 -4.094356e-001 -2.378783e+000 67 64 59
2.075931e-001 -4.165418e-001 -2.371662e+000 82 83 78
1.613658e-001 -4.231786e-001 -2.361251e+000 135 135 136
1.161743e-001 -4.370840e-001 -2.358864e+000 104 104 102
1.699693e-001 -4.316878e-001 -2.366834e+000 142 142 141
1.212099e-001 -4.429534e-001 -2.364159e+000 100 99 97
2.504479e-001 -4.317838e-001 -2.381779e+000 112 113 113
2.600287e-001 -4.303540e-001 -2.388958e+000 117 122 126
2.253749e-001 -4.375437e-001 -2.367963e+000 88 87 86
2.653781e-001 -4.323668e-001 -2.391787e+000 88 92 95
2.413367e-001 -4.534872e-001 -2.373710e+000 85 88 81
-2.783202e-002 2.991253e-001 -2.143476e+000 90 86 82
3.312422e-001 -2.793509e-001 -2.361621e+000 80 83 76
-3.714495e-002 -3.712959e-001 -2.283303e+000 78 76 74
1.924936e-001 -3.906242e-001 -2.365498e+000 27 24 21
1.568911e-001 -4.410696e-001 -2.373897e+000 104 108 101
-7.030708e-003 2.355508e-001 -2.213400e+000 69 59 57
2.560384e-001 -1.580485e-001 -2.312723e+000 216 211 218
2.621070e-001 -1.960098e-001 -2.308965e+000 231 230 236
3.150648e-001 -2.253570e-001 -2.347994e+000 70 75 71
5.918137e-001 -2.011276e-001 -2.451594e+000 41 41 39
2.118970e-001 -2.966208e-001 -2.307212e+000 66 61 55
-1.818770e-001 -3.513512e-001 -2.226722e+000 58 52 52
2.020357e-001 -3.331651e-001 -2.346380e+000 50 45 41
8.202472e-003 -3.898618e-001 -2.304915e+000 109 104 100
-1.894478e-001 -4.125474e-001 -2.278071e+000 120 112 110
4.379838e-002 -4.276264e-001 -2.336673e+000 153 143 141
1.799843e-001 -4.165912e-001 -2.362571e+000 69 65 64
-7.248681e-002 -2.377349e-001 -2.254609e+000 252 253 247
-1.711741e-001 -3.696715e-001 -2.257848e+000 104 94 92
-1.924866e-001 -3.936066e-001 -2.257914e+000 63 57 62
2.212976e-002 2.739160e-001 -2.214392e+000 127 118 113
-1.753079e-001 -3.255136e-001 -2.220706e+000 91 90 88
-1.921442e-001 -3.561128e-001 -2.239661e+000 73 66 61
-1.517805e-001 1.038834e+000 -4.515704e+000 125 121 111
-4.299147e-001 9.982509e-001 -4.442458e+000 85 78 75
-2.538645e-001 1.029285e+000 -4.510862e+000 103 101 86
-1.297382e-001 1.033800e+000 -4.495100e+000 93 86 83
-3.375614e-001 9.973312e-001 -4.421241e+000 51 40 38
-1.926045e-001 1.033953e+000 -4.527362e+000 70 63 58
-2.741280e-001 9.873956e-001 -4.408601e+000 154 147 136
-3.722160e-001 9.834979e-001 -4.425515e+000 62 59 49
-2.512723e-001 9.911194e-001 -4.430721e+000 22 20 13
-1.348105e-001 1.007184e+000 -4.462453e+000 92 89 93
-4.035041e-001 9.744095e-001 -4.411260e+000 145 141 129
-2.740531e-001 9.840607e-001 -4.420738e+000 133 130 117
-1.266258e-001 1.002707e+000 -4.451949e+000 83 79 80
-9.366213e-002 1.012869e+000 -4.491872e+000 76 70 57
-3.728670e-001 9.691291e-001 -4.414840e+000 36 32 30
-2.143163e-001 9.940261e-001 -4.469468e+000 52 47 44
-3.827826e-001 9.550018e-001 -4.382755e+000 126 123 109
-2.244400e-001 9.822866e-001 -4.447661e+000 156 151 144
-3.688528e-001 9.435383e-001 -4.348326e+000 163 160 142
-2.593755e-001 9.637516e-001 -4.409386e+000 43 39 36
-2.023975e-001 9.674385e-001 -4.415950e+000 126 123 106
-3.501109e-001 9.273363e-001 -4.344548e+000 79 72 72
-2.422036e-001 9.384918e-001 -4.377818e+000 146 141 139
-2.717200e-001 9.359891e-001 -4.377610e+000 51 43 39
-1.959382e-001 9.447564e-001 -4.389858e+000 59 51 52
-1.846433e-001 9.314548e-001 -4.373983e+000 161 152 129
-2.292900e-001 9.129034e-001 -4.331770e+000 147 142 134
-2.246765e-001 8.931972e-001 -4.276480e+000 97 91 89
-1.262598e-001 9.015697e-001 -4.285344e+000 115 108 98
1.125305e-001 9.160476e-001 -4.274777e+000 80 75 66
-1.144276e-001 9.045950e-001 -4.309626e+000 110 101 95
-2.031134e-001 8.909223e-001 -4.296799e+000 108 101 89
-1.106000e-001 8.934450e-001 -4.288138e+000 70 61 52
-1.403593e-001 8.902136e-001 -4.315867e+000 33 27 29
-1.142977e-001 8.861894e-001 -4.279110e+000 92 85 72
1.057667e-001 8.980250e-001 -4.257250e+000 102 93 88
-1.809911e-001 8.737605e-001 -4.281622e+000 73 68 56
-1.298304e-001 8.772049e-001 -4.287553e+000 125 122 113
1.183639e-001 8.908122e-001 -4.248566e+000 79 70 63
1.067876e-001 8.801729e-001 -4.235742e+000 101 93 81
9.539205e-002 8.772331e-001 -4.245411e+000 22 13 9
-1.710162e-001 8.417037e-001 -4.229839e+000 25 15 8
-6.656192e-002 8.538644e-001 -4.256825e+000 163 156 150
1.843111e-004 8.503399e-001 -4.227860e+000 74 64 60
1.070165e-001 8.658332e-001 -4.243070e+000 37 33 30
-7.207608e-002 8.439894e-001 -4.236789e+000 95 91 82
-4.254725e-002 8.351637e-001 -4.223650e+000 99 95 86
5.913970e-003 8.356581e-001 -4.221057e+000 58 51 48
-6.882654e-002 8.189823e-001 -4.204877e+000 170 165 162
-1.838429e-002 8.129911e-001 -4.181182e+000 68 65 60
-4.378877e-002 8.167895e-001 -4.223346e+000 62 58 55
1.995317e-002 8.188369e-001 -4.191218e+000 8 7 5
-8.914165e-002 7.998434e-001 -4.185583e+000 157 155 143
-5.748925e-002 8.036193e-001 -4.182868e+000 42 37 33
-4.574946e-002 8.045405e-001 -4.189841e+000 94 91 82
-3.526651e-002 8.024092e-001 -4.191142e+000 80 76 74
-6.036403e-002 7.941979e-001 -4.180906e+000 118 112 117
-1.170825e-002 7.944365e-001 -4.163830e+000 81 78 73
-7.702764e-002 7.894475e-001 -4.175309e+000 149 146 143
-4.285635e-002 7.902641e-001 -4.191734e+000 128 123 119
-1.310903e-002 7.720758e-001 -4.121425e+000 99 95 86
-6.855498e-002 7.597706e-001 -4.128894e+000 131 128 111
-4.921984e-002 7.537481e-001 -4.111239e+000 130 127 107
-2.773121e-002 7.615023e-001 -4.139640e+000 82 77 73
5.527898e-003 7.502039e-001 -4.115051e+000 101 97 93
-8.217400e-003 7.468876e-001 -4.109380e+000 24 20 17
1.302336e-002 7.443588e-001 -4.099721e+000 69 68 61
-1.571221e-002 7.400808e-001 -4.110709e+000 125 121 118
1.262300e-003 7.348568e-001 -4.092309e+000 137 134 128
3.561550e-002 7.266971e-001 -4.078825e+000 87 82 79
-9.247562e-002 7.056453e-001 -4.059246e+000 119 102 89
2.909051e-002 7.082821e-001 -4.063104e+000 116 114 110
-2.310060e-002 3.594708e-001 -2.134298e+000 221 218 225
-2.492839e-002 3.569620e-001 -2.129611e+000 188 178 176
1.325876e-001 6.872819e-001 -4.034345e+000 64 61 56
3.447897e-002 6.773163e-001 -4.039609e+000 132 128 127
9.294181e-003 6.694234e-001 -4.021041e+000 156 153 147
-3.782760e-003 6.614318e-001 -3.997054e+000 122 113 107
5.229299e-002 6.682460e-001 -4.018993e+000 65 61 57
7.460012e-002 6.647483e-001 -4.003182e+000 55 54 47
4.388453e-002 6.597681e-001 -4.012448e+000 88 85 78
-1.109652e+000 4.607834e-001 -3.413375e+000 82 78 66
5.000857e-002 6.335673e-001 -3.938955e+000 57 53 50
2.002094e-001 6.536565e-001 -4.038183e+000 56 52 41
-1.313077e+000 4.111229e-001 -3.330897e+000 87 80 69
2.741596e-002 6.218083e-001 -3.955004e+000 54 49 46
2.183384e-001 6.457670e-001 -4.029174e+000 37 48 30
2.204921e-001 6.346369e-001 -4.010671e+000 146 148 134
-1.396936e+000 3.875655e-001 -3.336861e+000 60 50 42
2.061018e-001 6.239058e-001 -3.969011e+000 73 69 63
2.243026e-001 6.259370e-001 -3.995699e+000 144 143 124
-1.327500e+000 3.801884e-001 -3.314376e+000 57 46 35
-1.283344e+000 3.831999e-001 -3.311525e+000 89 81 68
3.642498e-001 6.398228e-001 -4.064008e+000 142 128 128
-1.352635e+000 3.777371e-001 -3.323653e+000 170 147 131
1.617111e-001 6.066213e-001 -3.989495e+000 127 124 117
-1.300717e+000 3.753809e-001 -3.316461e+000 154 145 128
2.244202e-001 5.966871e-001 -3.953969e+000 100 95 89
-1.353613e+000 3.642860e-001 -3.326221e+000 168 150 135
3.920408e-001 6.263597e-001 -4.066198e+000 21 14 17
-1.299685e+000 3.599632e-001 -3.305288e+000 141 133 114
4.014281e-001 6.239386e-001 -4.065457e+000 147 139 149
-1.361106e+000 3.563440e-001 -3.323339e+000 146 132 118
-1.319117e+000 3.563223e-001 -3.309058e+000 134 123 94
2.186837e-001 5.804037e-001 -3.927419e+000 91 86 82
-1.333759e+000 3.522442e-001 -3.312893e+000 230 213 182
-1.135329e+000 3.795239e-001 -3.391444e+000 86 78 66
1.931765e-002 2.999720e-001 -2.180194e+000 124 129 132
-1.274011e+000 3.097483e-001 -3.287872e+000 97 87 78
-1.276212e+000 2.530847e-001 -3.203756e+000 100 70 68
-1.046134e+000 7.613581e-002 -2.883488e+000 93 95 79
-1.026969e+000 5.639700e-002 -2.883747e+000 93 95 81
6.696026e-001 1.578105e-001 -3.414955e+000 60 61 54
-5.068342e-001 -2.319987e-001 -2.180791e+000 126 123 132
8.130508e-001 -1.376133e-001 -2.955453e+000 118 124 118
-4.526208e-001 -2.708343e-001 -2.175312e+000 243 240 253
7.166159e-001 -1.703302e-001 -2.895014e+000 64 63 60
7.130141e-001 -1.804947e-001 -2.882386e+000 104 106 101
7.334581e-001 -1.944957e-001 -2.848976e+000 108 113 107
8.030417e-001 -2.137098e-001 -2.821636e+000 118 121 117
8.553956e-001 -2.271059e-001 -2.782606e+000 123 136 107
7.585205e-001 -2.439925e-001 -2.777854e+000 120 126 122
8.325540e-001 -2.347060e-001 -2.783670e+000 154 165 135
8.451725e-001 -2.447687e-001 -2.762778e+000 103 111 75
8.577953e-001 -2.527311e-001 -2.748628e+000 88 88 74
7.047820e-002 -3.166981e-001 -2.335013e+000 115 117 114
5.136683e-002 -3.237049e-001 -2.329946e+000 121 130 126
-2.484348e-001 -3.665020e-001 -2.229480e+000 75 71 60
-1.937015e-001 -3.632819e-001 -2.240516e+000 108 105 100
6.641056e-002 -3.429563e-001 -2.331533e+000 128 134 134
-1.913157e-001 -3.798899e-001 -2.256310e+000 138 138 129
-1.242194e-001 -3.734637e-001 -2.257371e+000 120 118 119
1.021244e-001 -3.517384e-001 -2.350287e+000 73 75 70
-1.734904e-001 -3.942378e-001 -2.266526e+000 110 109 105
-3.171671e-002 -3.796814e-001 -2.307293e+000 108 110 108
7.374820e-001 -3.175615e-001 -2.636794e+000 47 49 46
7.321290e-001 -3.223472e-001 -2.630922e+000 33 37 36
1.245448e-001 -3.735775e-001 -2.355442e+000 135 138 135
2.831122e-001 -3.622276e-001 -2.377832e+000 105 104 98
1.822168e-002 -3.951533e-001 -2.309087e+000 78 79 74
1.461093e-001 -3.844183e-001 -2.360558e+000 70 72 67
1.628677e-001 -3.824460e-001 -2.368909e+000 75 77 74
1.939156e-001 -3.919867e-001 -2.367228e+000 65 65 63
6.958840e-001 -3.574347e-001 -2.557455e+000 62 64 59
2.089803e-001 -4.010934e-001 -2.370371e+000 90 89 88
1.600609e-001 -4.126584e-001 -2.358580e+000 63 65 64
1.914491e-001 -4.115790e-001 -2.366080e+000 82 82 78
1.708454e-001 -4.490570e-001 -2.376896e+000 67 67 65
2.628475e-001 -4.415293e-001 -2.391417e+000 50 48 49
6.131511e-001 -4.093051e-001 -2.457831e+000 80 82 77
-1.561198e-001 9.804372e-001 -4.435629e+000 134 131 123
-2.571479e-001 9.372266e-001 -4.374690e+000 147 144 140
-1.034328e-001 8.719363e-001 -4.268329e+000 45 41 38
-8.321264e-002 8.743580e-001 -4.276681e+000 128 123 127
1.114732e-002 6.995680e-001 -4.051147e+000 103 98 97
-1.339091e+000 3.722887e-001 -3.337304e+000 205 192 156
7.300528e-002 -4.133128e-001 -2.330917e+000 59 60 55
-1.692356e-001 9.522461e-001 -4.422434e+000 135 130 124
-1.010059e-001 8.758132e-001 -4.301209e+000 139 136 130
-5.883786e-002 8.023280e-001 -4.177735e+000 40 35 29
1.405168e-002 7.925139e-001 -4.134886e+000 134 130 127
2.350333e-002 7.245663e-001 -3.992385e+000 106 104 98
-1.316951e+000 4.315931e-001 -3.307898e+000 132 121 109
-9.249925e-002 -2.196797e-001 -2.249593e+000 177 179 183
1.890348e-002 -3.958417e-001 -2.318524e+000 88 89 84
3.061373e-002 -4.035828e-001 -2.325946e+000 58 58 58
1.849420e-001 -3.877856e-001 -2.372667e+000 33 33 34
2.149272e-001 -3.951259e-001 -2.357996e+000 38 38 38
-1.345021e-001 8.648303e-001 -4.213883e+000 136 133 125
-9.034557e-002 7.677558e-001 -4.146329e+000 183 180 174
-1.965011e-001 -3.962810e-001 -2.265857e+000 51 47 47
1.756577e-001 -4.213450e-001 -2.367401e+000 147 152 146
5.787030e-002 -2.661970e-001 -2.323516e+000 36 37 39
2.221385e-001 -3.966469e-001 -2.357008e+000 66 65 63
2.319947e-001 -4.026093e-001 -2.382562e+000 67 66 64
-1.996388e-001 -3.662351e-001 -2.250179e+000 98 95 90
-1.940699e-003 8.864916e-002 -2.411824e+000 53 62 59
4.311558e-002 6.971748e-002 -2.409778e+000 140 149 148
4.628184e-002 3.731211e-002 -2.411869e+000 97 106 103
1.460774e-001 -2.224698e-002 -2.418441e+000 73 79 77
1.202271e-001 -3.663528e-002 -2.421426e+000 110 118 117
-4.058327e-001 -2.416967e-001 -2.217679e+000 74 76 71
-4.026733e-001 -2.402027e-001 -2.219562e+000 85 88 85
1.807317e-002 -4.917877e-001 -2.304916e+000 89 86 68
-4.117683e-002 -4.126499e-001 -2.304986e+000 113 113 105
3.412373e-001 -9.721254e-003 -2.462197e+000 28 27 24
1.059613e-001 -3.480760e-001 -2.351351e+000 81 81 79
2.925616e-002 3.530144e-001 -2.191162e+000 165 163 165
-1.160666e-002 2.372586e-001 -2.220836e+000 85 84 82
4.218124e-002 2.212578e-001 -2.248744e+000 161 161 163
-4.638885e-001 -1.359000e-001 -2.176851e+000 223 220 198
-4.768182e-001 -1.488498e-001 -2.173122e+000 225 218 212
-4.823084e-001 -1.534597e-001 -2.165957e+000 239 235 235
6.380992e-002 -3.028307e-001 -2.341312e+000 77 75 76
7.989052e-002 -3.309985e-001 -2.341005e+000 107 109 108
1.600118e-001 -4.264888e-001 -2.366020e+000 94 98 102
-1.917369e-001 -3.502863e-001 -2.232357e+000 134 131 124
-1.742031e-001 -3.706468e-001 -2.254985e+000 83 81 81
6.765092e-002 -3.174613e-001 -2.341011e+000 128 131 130
1.131330e-002 1.710564e-001 -2.238250e+000 116 109 107
-1.173320e-001 -3.861948e-001 -2.272085e+000 57 56 55
4.232199e-001 -1.350836e-001 -2.236213e+000 129 130 137
4.192378e-001 -1.427176e-001 -2.239910e+000 170 177 190
2.223196e-001 -1.528948e-001 -2.281359e+000 173 171 187
4.251173e-001 -1.481002e-001 -2.238621e+000 190 193 198
2.064719e-001 -1.566930e-001 -2.278137e+000 238 233 239
2.164427e-001 -1.639328e-001 -2.274723e+000 170 166 172
-4.321839e-001 -2.571277e-001 -2.200897e+000 150 151 143
1.932190e-001 -3.898987e-001 -2.363067e+000 40 42 36
1.920172e-001 -3.999432e-001 -2.369412e+000 33 35 31
2.032577e-001 -1.600273e-001 -2.285145e+000 247 243 239
2.056266e-001 -1.619086e-001 -2.278966e+000 255 251 255
2.108316e-001 -1.769303e-001 -2.285604e+000 158 157 163
-4.522726e-001 -2.591525e-001 -2.184043e+000 143 142 149
-1.248071e-003 3.552147e-001 -2.149934e+000 234 231 236
4.877879e-001 1.765128e-001 -2.379740e+000 125 130 134
4.978503e-001 1.722693e-001 -2.380407e+000 110 113 118
4.445826e-001 1.059813e-001 -2.384331e+000 134 137 145
-2.674417e-002 3.027042e-001 -2.139377e+000 85 80 75
-3.345874e-002 3.704618e-001 -2.131889e+000 196 184 202
-4.664872e-002 3.676786e-001 -2.123511e+000 250 248 252
-4.123981e-002 3.677915e-001 -2.126365e+000 188 183 199
-2.134696e-002 3.726496e-001 -2.142567e+000 157 147 164
-2.042304e-002 3.679284e-001 -2.137696e+000 233 227 240
-4.903677e-002 3.613983e-001 -2.125463e+000 159 148 169
-3.217222e-002 3.602618e-001 -2.133751e+000 213 202 202
-1.349234e-002 3.631489e-001 -2.137410e+000 222 214 212
-4.893596e-002 3.497288e-001 -2.124979e+000 244 238 245
-7.877288e-003 3.559035e-001 -2.142746e+000 189 184 194
-5.847305e-002 3.388659e-001 -2.118173e+000 197 196 200
5.709919e-001 1.989588e-002 -2.394588e+000 101 111 113
-2.204145e-001 -1.333139e-001 -2.167771e+000 132 138 140
3.164802e-001 -2.930200e-001 -2.354967e+000 130 131 123
2.887005e-001 -3.141751e-001 -2.349926e+000 164 166 154
-1.993578e-002 -3.776958e-001 -2.290064e+000 107 107 108
1.746526e-001 -4.099672e-001 -2.366930e+000 132 134 133
6.854701e-002 -4.717677e-001 -2.334139e+000 86 90 83
5.933187e-001 -2.020892e-001 -2.445453e+000 44 45 45
-1.112487e-001 1.203697e+000 -4.719275e+000 60 51 49
-2.224816e-001 1.178988e+000 -4.696592e+000 32 32 23
-7.790742e-001 1.027104e+000 -4.399882e+000 46 35 28
-7.553243e-001 1.036241e+000 -4.440684e+000 38 28 28
-6.523976e-001 1.038595e+000 -4.400731e+000 127 117 114
-9.371459e-002 1.195581e+000 -4.722767e+000 37 29 31
-7.749529e-001 1.024061e+000 -4.415424e+000 86 77 68
-6.908835e-001 1.023931e+000 -4.381133e+000 81 73 68
-7.182828e-001 1.017422e+000 -4.384050e+000 120 111 98
-6.823614e-001 1.028240e+000 -4.414779e+000 46 38 35
-2.094789e-001 1.156966e+000 -4.666375e+000 107 108 102
-6.856717e-001 1.019867e+000 -4.392407e+000 117 109 105
-5.704567e-001 1.048259e+000 -4.454149e+000 161 153 137
-5.893232e-001 1.033723e+000 -4.404606e+000 148 135 127
-2.238197e-001 1.149951e+000 -4.668281e+000 121 120 116
-1.704546e-001 1.150524e+000 -4.647627e+000 66 61 55
-7.296776e-001 1.001932e+000 -4.365578e+000 39 32 24
-6.825794e-001 1.020054e+000 -4.410082e+000 135 128 119
-2.903285e-001 1.117360e+000 -4.613565e+000 25 17 9
-2.461213e-001 1.121058e+000 -4.596156e+000 38 41 19
-3.137684e-001 1.111274e+000 -4.609841e+000 164 157 129
-5.636899e-001 1.049775e+000 -4.500418e+000 91 81 73
-1.026447e-001 1.153583e+000 -4.675962e+000 80 72 62
-1.894226e-001 1.123068e+000 -4.616882e+000 106 101 97
-5.416635e-001 1.032677e+000 -4.457739e+000 49 40 31
-3.373536e-001 1.086078e+000 -4.555428e+000 91 83 79
-3.162419e-001 1.086994e+000 -4.544610e+000 85 81 74
-5.494130e-001 1.025761e+000 -4.457838e+000 108 100 91
-4.277633e-001 1.050417e+000 -4.483467e+000 32 23 16
-2.437045e-001 1.094856e+000 -4.567295e+000 148 138 118
-2.169837e-001 1.108268e+000 -4.603725e+000 162 144 132
-1.495909e-001 1.132467e+000 -4.669026e+000 73 69 64
-2.607239e-001 1.095633e+000 -4.589380e+000 39 30 17
-5.955811e-001 9.966623e-001 -4.393042e+000 99 88 87
-2.203070e-001 1.095627e+000 -4.580495e+000 111 93 77
-6.808735e-001 9.801397e-001 -4.377095e+000 108 94 83
-6.234580e-001 9.690296e-001 -4.318656e+000 68 51 48
-6.001624e-001 9.449960e-001 -4.237012e+000 157 143 131
-5.354731e-001 1.003818e+000 -4.436417e+000 109 102 95
-3.903254e-001 1.044246e+000 -4.511584e+000 107 102 98
-2.266624e-001 1.075890e+000 -4.564307e+000 53 49 41
-6.228835e-001 9.280466e-001 -4.223079e+000 92 83 79
-4.162611e-001 1.018612e+000 -4.487747e+000 25 20 20
-1.305273e-001 1.087992e+000 -4.612011e+000 70 67 62
-3.950689e-001 1.018859e+000 -4.484679e+000 87 82 79
-1.751688e+000 6.089031e-001 -3.550405e+000 94 93 73
-3.777224e-002 1.082829e+000 -4.591686e+000 43 29 30
-3.675173e-001 9.912997e-001 -4.433325e+000 144 144 134
-1.811915e-001 1.042753e+000 -4.533360e+000 141 137 127
-1.205787e-001 1.037367e+000 -4.469772e+000 109 105 97
-3.807691e-001 9.780783e-001 -4.424681e+000 121 125 111
-9.753641e-002 1.033769e+000 -4.489736e+000 57 52 49
-3.389733e-001 9.689708e-001 -4.410267e+000 95 87 83
-2.388096e-001 1.000098e+000 -4.469517e+000 63 59 52
-1.594203e+000 6.104840e-001 -3.595957e+000 99 76 67
-6.055207e-001 8.537236e-001 -4.097845e+000 83 73 70
-3.094038e-001 9.689714e-001 -4.412666e+000 136 136 129
-6.142307e-001 8.725795e-001 -4.193531e+000 36 31 31
-3.408309e-001 9.519916e-001 -4.371612e+000 164 158 141
-1.112479e-001 1.014067e+000 -4.486577e+000 53 45 40
-3.420952e-001 9.433207e-001 -4.351002e+000 100 93 69
-2.639752e-001 9.669598e-001 -4.433828e+000 61 59 47
-6.997928e-002 9.934061e-001 -4.438986e+000 77 69 63
-2.510222e-001 9.605346e-001 -4.425896e+000 135 129 123
-6.014126e-001 8.441438e-001 -4.150042e+000 109 99 88
-1.669141e-001 9.789304e-001 -4.456877e+000 85 81 70
-1.159679e-001 9.900541e-001 -4.466142e+000 125 120 116
-3.266354e-001 9.234259e-001 -4.352709e+000 43 39 30
-5.437997e-001 8.343311e-001 -4.134840e+000 89 85 85
-4.988978e-001 8.451267e-001 -4.162000e+000 57 43 32
-5.812623e-001 8.169264e-001 -4.096570e+000 103 96 82
-3.200906e-001 9.047748e-001 -4.321607e+000 35 27 25
-1.664459e+000 5.388794e-001 -3.521626e+000 53 42 33
-5.355929e-001 8.190256e-001 -4.100162e+000 90 82 71
-5.250255e-001 8.192736e-001 -4.098870e+000 69 60 55
-2.173215e-001 9.201471e-001 -4.347381e+000 67 63 52
-1.968814e-001 9.225427e-001 -4.369234e+000 84 73 54
-4.859441e-001 8.314709e-001 -4.176120e+000 155 136 126
-4.915618e-001 8.269933e-001 -4.162621e+000 33 25 18
-1.681089e+000 5.022250e-001 -3.455549e+000 134 114 106
-1.644606e+000 5.108999e-001 -3.478017e+000 68 47 44
-5.327201e-001 7.854418e-001 -4.071730e+000 84 78 74
-4.596092e-001 8.128873e-001 -4.144829e+000 178 160 139
-2.172684e-001 8.697501e-001 -4.248491e+000 85 65 55
-1.777175e-001 8.923811e-001 -4.329047e+000 91 87 79
-5.216937e-001 7.840067e-001 -4.081928e+000 26 18 16
-4.443521e-001 8.091535e-001 -4.139693e+000 128 105 73
9.106189e-002 9.196230e-001 -4.297642e+000 114 111 97
-4.773389e-001 7.962835e-001 -4.131585e+000 142 134 129
-1.602117e+000 4.908011e-001 -3.439661e+000 113 89 71
-2.037222e-001 8.432789e-001 -4.228626e+000 40 22 19
-1.417797e-001 8.606167e-001 -4.274171e+000 79 71 64
-4.704660e-001 7.752748e-001 -4.114177e+000 152 148 135
-4.867781e-001 7.391599e-001 -3.972521e+000 146 144 132
-7.732715e-002 8.558018e-001 -4.251581e+000 70 66 56
-4.634181e-001 7.309783e-001 -3.979943e+000 40 29 22
-1.214113e-001 8.191754e-001 -4.169612e+000 90 82 77
-1.088186e-001 8.333941e-001 -4.229852e+000 103 95 93
-5.529490e-002 8.186419e-001 -4.177729e+000 96 91 85
-1.405960e+000 4.492197e-001 -3.355846e+000 77 66 58
-1.153433e-001 8.051250e-001 -4.188702e+000 30 20 17
-4.261674e-001 7.140799e-001 -3.976481e+000 30 22 16
-1.365712e-001 8.017362e-001 -4.196403e+000 148 145 136
-4.191590e-001 7.252341e-001 -4.048857e+000 166 170 145
-7.925301e-002 8.075166e-001 -4.201159e+000 160 153 142
-1.679003e+000 3.888084e-001 -3.305551e+000 191 192 158
-1.370475e+000 4.395539e-001 -3.336692e+000 142 128 110
-2.643500e-001 7.588230e-001 -4.127381e+000 30 22 17
-1.759514e-001 7.730301e-001 -4.160275e+000 66 59 66
-1.369014e+000 4.247079e-001 -3.318942e+000 77 62 44
-1.378618e+000 4.298866e-001 -3.341928e+000 55 41 33
-1.507953e-001 7.691472e-001 -4.145955e+000 171 161 162
-1.749764e-001 7.654184e-001 -4.154731e+000 167 157 153
-4.676820e-002 7.841395e-001 -4.168279e+000 74 65 63
-4.354702e-001 6.795301e-001 -3.954684e+000 110 105 102
-9.684934e-002 7.731134e-001 -4.167021e+000 178 174 169
-9.266241e-002 7.596992e-001 -4.148673e+000 111 100 93
-8.383485e-002 7.602558e-001 -4.144224e+000 98 89 75
-1.393767e+000 4.084374e-001 -3.344048e+000 119 111 100
-1.565257e-001 7.315910e-001 -4.094433e+000 31 19 15
-1.205493e-001 7.282303e-001 -4.048120e+000 37 31 31
-1.363970e+000 4.039217e-001 -3.341561e+000 154 145 142
-1.575119e+000 3.408973e-001 -3.192965e+000 49 37 28
-1.368845e+000 3.880412e-001 -3.339315e+000 209 196 197
-1.390512e+000 3.624940e-001 -3.229136e+000 165 151 145
-1.375575e+000 3.840330e-001 -3.331730e+000 43 29 33
-1.561998e+000 3.255669e-001 -3.170838e+000 58 39 35
-1.379067e+000 3.583558e-001 -3.228042e+000 109 82 71
-1.369065e+000 3.530636e-001 -3.228377e+000 134 114 100
-1.385502e+000 3.633811e-001 -3.317400e+000 91 67 65
-6.895433e-002 7.034146e-001 -4.074028e+000 200 173 167
-1.484812e+000 3.211972e-001 -3.209510e+000 20 15 8
-1.595650e+000 2.994543e-001 -3.193492e+000 177 160 147
-1.361240e+000 3.369848e-001 -3.236536e+000 225 193 167
-1.564092e+000 2.899647e-001 -3.172064e+000 75 63 58
-1.498685e+000 2.955492e-001 -3.169370e+000 113 98 91
-1.345882e+000 3.211082e-001 -3.230898e+000 234 200 179
-1.364919e+000 3.160302e-001 -3.251233e+000 66 40 26
-1.352300e+000 3.210593e-001 -3.260834e+000 214 187 199
2.673622e-001 6.951511e-001 -4.095311e+000 37 34 28
2.713049e-001 5.701938e-001 -3.936212e+000 113 110 103
3.024736e-001 5.719119e-001 -3.947408e+000 91 87 78
3.183099e-001 5.698442e-001 -3.939048e+000 56 53 47
3.302098e-001 5.639547e-001 -3.944145e+000 68 68 60
3.697970e-001 5.551587e-001 -3.936683e+000 93 91 79
-1.147620e+000 4.355413e-002 -2.766987e+000 81 82 68
-1.087733e+000 5.350548e-002 -2.846436e+000 73 71 59
-1.128295e+000 1.793725e-002 -2.790172e+000 148 151 136
4.526565e-001 3.481543e-001 -3.634542e+000 44 42 38
6.241605e-001 2.540555e-001 -3.525365e+000 41 37 34
6.882721e-001 2.553086e-001 -3.533194e+000 43 39 36
7.041868e-001 1.995072e-001 -3.457317e+000 68 67 63
6.665771e-001 -1.794777e-001 -2.891723e+000 121 118 111
6.910705e-001 -2.140274e-001 -2.826271e+000 133 132 134
7.620038e-001 -1.985860e-001 -2.849434e+000 117 122 116
7.149630e-001 -2.151983e-001 -2.821349e+000 125 127 125
8.240553e-001 -1.965936e-001 -2.855255e+000 122 126 123
7.446487e-001 -2.296739e-001 -2.801066e+000 84 86 83
7.571954e-001 -2.270943e-001 -2.801072e+000 95 99 98
8.073134e-001 -2.417843e-001 -2.774113e+000 82 84 83
1.498018e-001 -3.749492e-001 -2.360753e+000 90 94 90
4.876420e-002 -4.036460e-001 -2.316638e+000 87 87 85
2.742061e-001 -3.575429e-001 -2.370543e+000 93 93 91
7.563045e-001 -2.725875e-001 -2.715756e+000 88 90 88
7.400054e-001 -2.796951e-001 -2.702689e+000 107 110 103
7.541664e-001 -2.920494e-001 -2.679843e+000 185 176 169
7.623008e-001 -2.966269e-001 -2.675637e+000 226 217 215
2.372051e-001 -4.091799e-001 -2.382776e+000 57 55 56
7.237152e-001 -3.194391e-001 -2.623801e+000 131 133 130
6.360048e-001 -3.386234e-001 -2.548871e+000 73 75 74
5.415184e-001 -3.939221e-001 -2.478269e+000 82 81 77
7.366771e-001 -3.655824e-001 -2.542579e+000 100 103 100
7.267719e-001 -3.684526e-001 -2.535652e+000 95 97 92
5.424695e-001 -4.156980e-001 -2.435552e+000 59 58 55
5.505778e-001 -4.177793e-001 -2.439098e+000 88 89 84
5.190485e-001 -4.298218e-001 -2.400987e+000 72 67 64
6.662596e-001 -4.096286e-001 -2.459005e+000 91 96 90
-2.607962e-001 1.093051e+000 -4.582443e+000 30 20 8
-6.094598e-001 9.786939e-001 -4.368388e+000 52 35 26
-6.037669e-001 9.810252e-001 -4.384264e+000 133 122 109
-1.416116e-001 1.006969e+000 -4.484449e+000 115 111 107
-1.784483e-001 9.853628e-001 -4.465376e+000 143 138 133
-3.231800e-001 9.411953e-001 -4.370501e+000 144 136 130
-2.206018e-001 9.519707e-001 -4.404922e+000 38 34 33
-5.107870e-001 8.492579e-001 -4.146107e+000 113 101 90
-1.678591e+000 5.459230e-001 -3.521077e+000 118 115 94
-5.538006e-001 8.195649e-001 -4.081832e+000 124 116 107
-1.595028e+000 4.938613e-001 -3.465349e+000 96 65 61
-1.481225e+000 4.893148e-001 -3.433865e+000 64 51 42
-1.310779e+000 4.485899e-001 -3.325298e+000 105 100 94
-1.669032e+000 3.976089e-001 -3.335501e+000 76 56 56
-6.432759e-002 7.987687e-001 -4.172517e+000 50 43 35
-1.668672e+000 3.790831e-001 -3.302365e+000 93 86 59
-1.485202e+000 3.909840e-001 -3.320250e+000 194 160 142
5.661431e-001 2.709368e-001 -3.540592e+000 84 79 73
-1.151092e-001 -3.808065e-001 -2.251725e+000 63 62 61
8.455915e-001 -2.544327e-001 -2.756422e+000 137 128 108
-2.509912e-001 1.048893e+000 -4.517672e+000 83 77 65
-2.338714e-001 1.030289e+000 -4.509695e+000 23 19 16
-3.313691e-001 9.776391e-001 -4.406130e+000 26 23 14
-2.669461e-001 9.879336e-001 -4.402677e+000 148 145 136
-1.961227e-001 9.947831e-001 -4.470916e+000 131 123 121
-5.373174e-001 8.691056e-001 -4.155268e+000 89 82 72
-1.215322e-001 9.871461e-001 -4.442830e+000 147 140 132
-2.402684e-001 9.297840e-001 -4.281208e+000 32 29 21
