ply
format ascii 1.0
element face 0
property list uchar int vertex_indices
element vertex 322
property float x
property float y
property float z
property uchar diffuse_red
property uchar diffuse_green
property uchar diffuse_blue
end_header
-4.458749e-001 -2.608511e-001 -2.182638e+000 146 143 150
2.580986e-001 -4.020718e-001 -2.377930e+000 37 36 34
-4.801574e-001 -2.274381e-001 -2.173271e+000 217 214 211
-1.830628e-001 -3.604535e-001 -2.239979e+000 118 117 115
1.710751e-001 -3.523713e-001 -2.342194e+000 119 120 112
1.134498e-001 -1.313202e-001 -2.261933e+000 118 129 125
1.985981e-001 -1.607897e-001 -2.267482e+000 247 243 238
2.089723e-001 -1.699265e-001 -2.269272e+000 236 229 238
2.016168e-001 -1.728752e-001 -2.266333e+000 208 207 208
2.067134e-001 -1.779624e-001 -2.265138e+000 216 215 221
3.179147e-001 -2.338816e-001 -2.349068e+000 75 84 81
9.839267e-002 -2.176563e-001 -2.262972e+000 90 94 95
-4.910524e-001 -1.945686e-001 -2.170535e+000 189 186 173
2.443801e-001 -3.408123e-001 -2.356028e+000 45 46 41
2.126902e-001 -3.609938e-001 -2.350951e+000 70 72 67
1.299157e-001 -3.775359e-001 -2.349767e+000 70 75 71
1.731017e-001 -3.908414e-001 -2.357951e+000 88 94 87
2.109556e-001 -3.939718e-001 -2.358993e+000 33 34 29
2.193921e-001 -3.973374e-001 -2.363706e+000 74 73 71
1.200162e-001 -3.816104e-001 -2.348918e+000 114 117 113
-1.713583e-001 -3.234375e-001 -2.219804e+000 73 76 75
2.155067e-001 -4.096151e-001 -2.377540e+000 56 59 52
-6.805070e-002 -3.569805e-001 -2.265980e+000 94 98 97
2.514681e-001 -4.192924e-001 -2.380493e+000 62 66 65
-5.410359e-002 -3.636868e-001 -2.274454e+000 75 80 76
1.764678e-001 -4.076462e-001 -2.361497e+000 103 107 107
-2.755601e-002 -3.690507e-001 -2.280592e+000 150 155 151
-2.007718e-001 -3.366013e-001 -2.217925e+000 104 105 100
-4.178853e-002 -3.699397e-001 -2.284074e+000 67 71 66
1.838765e-001 -4.179717e-001 -2.364524e+000 58 60 57
-1.834327e-001 -3.482767e-001 -2.232093e+000 64 64 62
-8.496057e-003 -3.829536e-001 -2.292026e+000 66 68 67
-1.835658e-001 -3.556505e-001 -2.238688e+000 72 71 69
3.444779e-002 -4.004314e-001 -2.312360e+000 61 63 61
-1.970720e-001 -3.611177e-001 -2.238353e+000 103 102 98
2.000187e-001 -1.607326e-001 -2.272554e+000 248 244 240
1.902658e-001 -3.886017e-001 -2.361759e+000 24 25 22
-1.618885e-001 -3.717775e-001 -2.250788e+000 48 49 44
1.742833e-001 -3.538675e-001 -2.344793e+000 118 118 110
-2.626481e-001 -4.107683e-001 -2.256707e+000 130 130 114
2.087977e-001 -3.575705e-001 -2.350445e+000 40 41 38
-4.340395e-001 -2.588852e-001 -2.186378e+000 234 235 230
-2.114331e-002 3.179634e-001 -2.140764e+000 107 109 106
-3.963695e-002 3.074819e-001 -2.137055e+000 106 108 105
-2.499455e-002 3.016467e-001 -2.149258e+000 98 99 94
-2.799409e-001 -5.623765e-002 -2.164891e+000 109 119 117
-2.980225e-001 -6.871161e-002 -2.155716e+000 91 102 97
-2.908406e-001 -6.832128e-002 -2.156219e+000 117 128 125
2.006813e-001 -1.482667e-001 -2.273374e+000 251 249 246
2.579823e-001 -1.580293e-001 -2.314691e+000 171 174 182
2.249250e-001 -1.659661e-001 -2.279332e+000 164 161 170
-1.264392e-001 -1.724342e-001 -2.223084e+000 188 194 194
2.026307e-001 -1.817528e-001 -2.266583e+000 191 192 192
1.158050e-001 -1.890168e-001 -2.253415e+000 115 121 121
-1.012775e-001 -2.082478e-001 -2.236532e+000 179 184 187
-1.048987e-001 -2.134014e-001 -2.232987e+000 171 176 180
-4.835505e-001 -2.262582e-001 -2.171445e+000 130 128 132
-6.657814e-002 -2.466753e-001 -2.257460e+000 169 174 177
-1.601728e-001 -2.444106e-001 -2.202527e+000 129 137 134
3.031443e-001 -2.592922e-001 -2.341091e+000 76 85 81
-7.377282e-002 -2.642370e-001 -2.249621e+000 171 179 181
-6.929081e-002 -2.681322e-001 -2.252126e+000 186 192 195
-5.211864e-002 -2.851002e-001 -2.263518e+000 183 189 189
-5.279529e-002 -2.904112e-001 -2.259916e+000 170 174 175
-4.817958e-002 -2.994704e-001 -2.263749e+000 125 131 131
1.679459e-001 -3.309444e-001 -2.341990e+000 89 90 84
2.011267e-001 -3.324897e-001 -2.343918e+000 38 39 30
2.545191e-001 -3.425994e-001 -2.355200e+000 115 115 107
8.277599e-002 -3.408566e-001 -2.323021e+000 139 144 140
1.705391e-001 -3.508395e-001 -2.346239e+000 91 92 86
1.986770e-001 -3.495404e-001 -2.351974e+000 91 92 86
2.622292e-001 -3.531709e-001 -2.364470e+000 88 89 83
-2.564959e-001 -3.341784e-001 -2.202154e+000 110 111 105
-1.947581e-001 -3.563855e-001 -2.233365e+000 65 65 59
1.481154e-001 -3.760907e-001 -2.360836e+000 72 76 71
1.974095e-001 -3.733077e-001 -2.348969e+000 99 101 94
3.630970e-002 -3.697268e-001 -2.304977e+000 100 106 103
2.707084e-001 -3.830173e-001 -2.382227e+000 93 95 90
-1.857461e-001 -3.684576e-001 -2.242961e+000 84 84 82
1.535137e-001 -3.875176e-001 -2.361620e+000 51 55 51
1.403307e-001 -3.918931e-001 -2.352051e+000 76 78 73
1.692815e-001 -3.922289e-001 -2.355285e+000 121 126 120
9.415734e-002 -3.931641e-001 -2.332220e+000 93 98 94
2.421410e-001 -4.149975e-001 -2.376191e+000 58 60 57
1.319961e-001 -4.242590e-001 -2.351586e+000 41 44 37
2.535839e-001 -1.520702e-001 -2.286180e+000 159 164 169
2.200445e-001 -1.656379e-001 -2.278461e+000 231 229 240
2.043026e-001 -1.799439e-001 -2.270259e+000 170 172 171
-7.226730e-002 -2.386971e-001 -2.255322e+000 224 229 231
2.641831e-001 -4.124722e-001 -2.387820e+000 33 33 33
2.207118e-001 -3.420979e-001 -2.354276e+000 94 95 89
2.101175e-001 -3.578981e-001 -2.339126e+000 58 61 55
-2.316805e-001 -3.395809e-001 -2.207148e+000 108 107 102
4.006100e-002 -3.707748e-001 -2.306875e+000 82 88 85
1.646817e-001 -4.304926e-001 -2.369964e+000 111 117 112
-2.411904e-001 -3.634942e-001 -2.224641e+000 45 45 36
2.354441e-001 -4.061442e-001 -2.376045e+000 30 31 26
-1.342532e-002 3.748077e-001 -2.158503e+000 181 171 183
-2.057840e-002 3.734186e-001 -2.155011e+000 208 205 236
-6.997133e-003 3.725214e-001 -2.159649e+000 185 177 188
-2.424028e-002 3.629753e-001 -2.139286e+000 174 166 180
-8.812656e-003 3.630250e-001 -2.151097e+000 208 198 206
-2.631841e-004 3.621393e-001 -2.160983e+000 224 220 213
-4.063238e-003 3.608350e-001 -2.154444e+000 146 138 143
-8.458106e-003 3.586768e-001 -2.151268e+000 237 233 226
-1.300359e-002 3.577616e-001 -2.152354e+000 199 186 185
-4.265184e-002 3.517207e-001 -2.134289e+000 237 232 234
-2.353918e-003 3.518569e-001 -2.158077e+000 213 209 222
-3.339204e-002 3.472052e-001 -2.135999e+000 231 223 230
-1.301475e-002 3.483638e-001 -2.150257e+000 187 182 187
-1.945113e-002 3.479800e-001 -2.146410e+000 250 247 243
-2.798511e-002 3.437676e-001 -2.138538e+000 201 196 211
-3.215291e-002 3.380570e-001 -2.136409e+000 247 243 248
-2.025077e-002 3.368337e-001 -2.147837e+000 216 217 217
-4.892007e-002 3.349809e-001 -2.130082e+000 236 237 242
-4.028368e-002 3.311498e-001 -2.133107e+000 163 164 165
-2.616425e-002 3.327695e-001 -2.141951e+000 190 189 194
-2.485509e-002 3.236313e-001 -2.141219e+000 98 100 100
9.826139e-003 3.219668e-001 -2.173382e+000 149 154 150
-1.723680e-001 2.918882e-001 -2.128987e+000 198 198 197
-7.399309e-002 2.911511e-001 -2.127124e+000 114 116 112
-1.734956e-001 2.885878e-001 -2.127645e+000 185 185 183
-1.853046e-001 2.885573e-001 -2.134014e+000 242 239 225
-1.576296e-001 2.750937e-001 -2.126792e+000 148 154 154
-5.853175e-002 2.695579e-001 -2.148071e+000 104 107 106
2.035226e-002 2.645743e-001 -2.197490e+000 103 102 98
-1.025624e-001 2.503922e-001 -2.136544e+000 146 146 144
1.568449e-001 -8.637862e-002 -2.294440e+000 112 125 122
-2.478289e-001 -8.469543e-002 -2.170851e+000 125 137 131
1.049615e-001 -1.058923e-001 -2.280940e+000 102 113 107
-3.203465e-001 -1.063600e-001 -2.144635e+000 108 116 118
-4.540847e-001 -1.264791e-001 -2.174249e+000 234 230 228
2.735452e-001 -1.521766e-001 -2.328152e+000 88 94 90
-4.866772e-001 -1.640080e-001 -2.165472e+000 158 155 140
-4.905132e-001 -1.751815e-001 -2.168966e+000 205 202 195
-2.255687e-001 -1.820890e-001 -2.164483e+000 107 114 111
-4.901701e-001 -1.855183e-001 -2.167419e+000 170 166 157
-1.070841e-001 -1.912845e-001 -2.236524e+000 194 197 203
-4.907615e-001 -1.911704e-001 -2.170007e+000 141 138 130
-8.839018e-002 -1.969514e-001 -2.246649e+000 186 191 194
-4.914914e-001 -1.984477e-001 -2.170184e+000 244 241 231
-4.966823e-001 -2.072517e-001 -2.175670e+000 206 202 207
-4.920984e-001 -2.092336e-001 -2.176199e+000 218 215 207
-4.907341e-001 -2.125707e-001 -2.169920e+000 157 154 150
-4.868939e-001 -2.145386e-001 -2.171879e+000 190 188 179
-4.908833e-001 -2.194129e-001 -2.176177e+000 116 111 115
-4.876503e-001 -2.242699e-001 -2.173767e+000 211 210 206
-4.904418e-001 -2.298129e-001 -2.170364e+000 145 142 165
-7.079923e-002 -2.406865e-001 -2.259686e+000 205 209 213
8.260423e-002 -2.446146e-001 -2.286844e+000 125 130 124
-4.783901e-001 -2.470929e-001 -2.177226e+000 166 167 190
9.471109e-002 -2.577519e-001 -2.289663e+000 81 82 77
1.255795e-001 -2.608709e-001 -2.280301e+000 139 140 134
-3.860329e-001 -2.565296e-001 -2.207269e+000 70 76 72
1.072298e-001 -2.666628e-001 -2.295434e+000 119 121 116
3.077359e-001 -2.931996e-001 -2.350950e+000 70 74 70
3.127083e-001 -2.935986e-001 -2.350333e+000 122 127 123
3.028923e-001 -2.987402e-001 -2.360947e+000 81 86 82
4.204583e-002 -3.001044e-001 -2.326726e+000 89 99 96
3.057431e-001 -3.018843e-001 -2.354631e+000 131 134 128
-4.990542e-002 -2.953601e-001 -2.268790e+000 165 171 170
1.956358e-001 -3.030618e-001 -2.315155e+000 51 53 42
1.292796e-001 -3.085254e-001 -2.332605e+000 88 89 84
1.188238e-001 -3.163575e-001 -2.341417e+000 69 70 64
2.527246e-001 -3.141965e-001 -2.338498e+000 115 117 104
3.181056e-001 -3.198324e-001 -2.364837e+000 147 149 144
1.241500e-001 -3.223911e-001 -2.347480e+000 77 79 76
1.773031e-001 -3.232263e-001 -2.339929e+000 88 88 80
1.646328e-001 -3.293572e-001 -2.343023e+000 97 98 92
-1.919345e-001 -3.130774e-001 -2.207902e+000 123 125 124
1.517978e-001 -3.355662e-001 -2.351521e+000 99 100 94
2.547735e-001 -3.346839e-001 -2.352425e+000 105 105 96
2.758689e-001 -3.384123e-001 -2.357156e+000 67 67 59
9.326322e-002 -3.379105e-001 -2.347898e+000 77 79 78
2.394359e-001 -3.392270e-001 -2.355292e+000 91 92 87
1.060809e-001 -3.483418e-001 -2.351105e+000 86 86 84
2.832031e-001 -3.513258e-001 -2.368633e+000 61 61 53
2.950510e-001 -3.484023e-001 -2.362045e+000 85 84 80
-1.751726e-001 -3.323409e-001 -2.220815e+000 97 99 96
1.893777e-001 -3.508133e-001 -2.348099e+000 75 80 73
2.876197e-001 -3.586296e-001 -2.370751e+000 70 71 66
-1.791764e-001 -3.392931e-001 -2.224982e+000 103 105 102
2.189966e-001 -3.576728e-001 -2.350102e+000 77 79 73
5.256013e-002 -3.563819e-001 -2.317427e+000 120 124 123
1.138605e-001 -3.637660e-001 -2.345841e+000 53 55 50
1.314782e-001 -3.673393e-001 -2.358711e+000 65 67 62
1.236641e-001 -3.686766e-001 -2.355711e+000 69 71 65
6.696044e-001 -3.945164e-001 -2.481281e+000 73 78 74
-3.590684e-002 -3.713263e-001 -2.282089e+000 76 78 73
-1.765492e-001 -3.713945e-001 -2.247796e+000 114 113 109
-2.181296e-002 -3.757287e-001 -2.282789e+000 87 89 86
-1.596058e-001 -3.731147e-001 -2.253179e+000 58 60 55
-2.035108e-001 -3.720069e-001 -2.238598e+000 86 87 79
-1.951507e-001 -3.754686e-001 -2.247556e+000 128 129 123
2.260057e-001 -3.982352e-001 -2.367740e+000 47 44 42
-1.706746e-001 -3.812712e-001 -2.252780e+000 84 87 80
1.319949e-002 -3.954729e-001 -2.306552e+000 144 146 141
2.263416e-001 -4.096937e-001 -2.375621e+000 88 89 84
-5.795419e-002 -4.064206e-001 -2.296451e+000 109 109 107
1.510692e-002 -4.136585e-001 -2.315369e+000 117 116 114
2.003248e-001 -4.483524e-001 -2.374189e+000 65 66 61
2.771651e-001 -4.487258e-001 -2.369223e+000 77 81 79
2.908457e-001 -4.501786e-001 -2.372532e+000 44 48 47
2.399237e-001 -4.529853e-001 -2.373343e+000 66 71 65
2.649824e-001 -4.589120e-001 -2.363165e+000 75 77 74
1.522516e-001 -4.680935e-001 -2.338080e+000 87 88 82
-1.589243e-001 -5.008822e-001 -2.270091e+000 81 83 78
-7.719423e-002 -5.001605e-001 -2.268226e+000 77 79 74
-3.616805e-001 -5.031728e-001 -2.259282e+000 90 94 93
-3.795045e-001 -5.102681e-001 -2.244266e+000 90 90 86
-2.281859e-001 -5.121447e-001 -2.247809e+000 105 108 100
-4.069484e-001 -5.158992e-001 -2.231791e+000 190 187 169
-4.022436e-001 -5.169853e-001 -2.229677e+000 108 107 82
-3.321595e-002 3.509466e-001 -2.137542e+000 175 162 174
-4.365376e-002 3.450109e-001 -2.132832e+000 153 144 146
1.599982e-001 -1.175984e-001 -2.271360e+000 117 128 123
-4.710684e-001 -2.474136e-001 -2.171630e+000 124 121 150
-4.377007e-001 -2.576095e-001 -2.185269e+000 197 199 196
3.083162e-001 -2.837257e-001 -2.350090e+000 145 154 149
2.491965e-001 -3.069042e-001 -2.332698e+000 70 70 64
1.048843e-001 -3.494973e-001 -2.352445e+000 89 89 87
1.058260e-001 -3.748145e-001 -2.346265e+000 87 92 88
1.829050e-001 -4.019169e-001 -2.364484e+000 120 124 122
9.835788e-002 -2.174747e-001 -2.267488e+000 86 90 91
-4.870446e-001 -2.194030e-001 -2.178457e+000 120 119 113
-4.761337e-001 -2.286577e-001 -2.165942e+000 172 170 160
2.258055e-001 -3.387037e-001 -2.356678e+000 126 127 121
1.167512e-001 -3.620859e-001 -2.339275e+000 52 52 50
-1.851441e-001 -3.545905e-001 -2.234685e+000 44 43 41
-2.000908e-001 -3.590450e-001 -2.234198e+000 57 56 51
2.369532e-001 -3.890643e-001 -2.356145e+000 87 84 79
-1.463375e-001 -3.836835e-001 -2.288283e+000 74 74 70
1.801703e-001 -4.238271e-001 -2.381762e+000 103 108 102
5.670401e-001 -3.471301e-002 -2.411543e+000 20 23 31
1.789921e-001 -3.967772e-001 -2.352222e+000 112 120 115
1.919465e-001 -4.022139e-001 -2.370318e+000 45 47 43
-7.390908e-002 3.501739e-001 -2.122105e+000 215 205 214
-6.766055e-002 3.481493e-001 -2.123448e+000 198 192 203
-8.455190e-002 3.412987e-001 -2.120080e+000 183 167 176
-6.985090e-002 3.365316e-001 -2.123918e+000 165 148 148
-9.385792e-002 3.256935e-001 -2.114819e+000 172 170 166
-6.974994e-002 3.288535e-001 -2.120864e+000 187 187 208
-6.700549e-002 3.301141e-001 -2.124171e+000 198 202 222
-4.580383e-002 3.287777e-001 -2.124047e+000 192 191 204
-4.482336e-002 3.267809e-001 -2.128521e+000 176 173 169
-5.436800e-002 3.240506e-001 -2.126778e+000 178 181 185
-7.794809e-002 3.199168e-001 -2.126917e+000 176 176 178
-6.656297e-002 3.098181e-001 -2.124725e+000 114 113 118
-1.009609e-001 3.009409e-001 -2.119994e+000 152 154 156
-1.409981e-001 2.644583e-001 -2.128894e+000 107 110 114
-6.271846e-002 2.618998e-001 -2.150224e+000 153 150 145
-2.253057e-001 -1.092839e-001 -2.169885e+000 143 147 151
-1.878382e-001 -1.575339e-001 -2.182320e+000 136 140 140
5.629814e-001 -1.116324e-001 -2.377382e+000 77 79 78
2.027959e-001 -1.586400e-001 -2.271079e+000 212 205 209
1.991286e-001 -1.602154e-001 -2.268271e+000 244 237 242
6.037869e-001 -1.127680e-001 -2.389232e+000 105 105 109
-1.397918e-001 -2.076315e-001 -2.206325e+000 110 109 105
-1.054805e-001 -2.027337e-001 -2.237728e+000 188 185 195
-9.690185e-002 -2.196052e-001 -2.241900e+000 220 225 233
-1.008637e-001 -2.410924e-001 -2.232701e+000 134 139 148
-8.173963e-002 -2.444645e-001 -2.246212e+000 193 197 204
-7.532475e-002 -2.518636e-001 -2.247415e+000 200 198 209
2.978392e-001 -2.208634e-001 -2.338297e+000 107 113 111
-6.226747e-002 -2.717785e-001 -2.257974e+000 209 209 216
3.306420e-001 -2.600165e-001 -2.358891e+000 96 106 98
3.068261e-001 -2.670137e-001 -2.345629e+000 101 103 99
3.296991e-001 -2.652514e-001 -2.361031e+000 67 74 73
-2.365915e-001 -3.550584e-001 -2.217501e+000 53 47 44
-2.493221e-001 -3.574610e-001 -2.216771e+000 116 107 103
-2.284694e-001 -3.570514e-001 -2.219305e+000 113 102 98
3.735949e-002 -3.697335e-001 -2.307921e+000 96 98 94
2.745837e-001 -3.518389e-001 -2.364253e+000 103 98 92
3.320317e-003 -3.879182e-001 -2.299881e+000 90 86 83
9.472105e-003 -3.901669e-001 -2.301624e+000 90 85 81
2.406962e-002 -3.975198e-001 -2.308379e+000 98 97 90
-4.168441e-002 -4.115720e-001 -2.301129e+000 141 134 129
2.885777e-001 -3.740758e-001 -2.379506e+000 113 113 104
1.527605e-001 -3.868825e-001 -2.364344e+000 67 68 63
1.592952e-001 -3.877859e-001 -2.361420e+000 117 119 115
1.632354e-001 -3.885297e-001 -2.360952e+000 70 72 69
2.820524e-001 -3.821685e-001 -2.382680e+000 105 106 101
5.838207e-002 -4.088451e-001 -2.325788e+000 77 72 69
7.109546e-002 -4.127241e-001 -2.330669e+000 69 68 64
1.899268e-001 -3.991950e-001 -2.370919e+000 45 43 44
1.088514e-002 -4.215210e-001 -2.322396e+000 137 131 126
1.472640e-001 -4.064850e-001 -2.353244e+000 90 88 91
1.915381e-001 -4.148946e-001 -2.368006e+000 130 130 125
2.718607e-001 -4.143184e-001 -2.386882e+000 82 82 77
2.246848e-001 -4.283130e-001 -2.367990e+000 99 99 97
2.279343e-001 -3.045107e-001 -2.321836e+000 70 68 57
-1.869764e-001 -3.782632e-001 -2.251153e+000 143 140 134
2.511313e-001 -3.658782e-001 -2.364888e+000 121 121 113
1.269848e-001 -4.030789e-001 -2.347533e+000 109 106 106
2.098129e-001 -4.057512e-001 -2.366558e+000 43 42 39
1.684025e-001 -4.202245e-001 -2.359588e+000 136 137 134
1.077570e-001 -2.500492e-001 -2.274940e+000 95 94 90
-1.736653e-001 -3.245927e-001 -2.224309e+000 76 75 79
2.280349e-001 -3.009544e-001 -2.329283e+000 73 68 62
2.122135e-001 -3.255833e-001 -2.335514e+000 58 56 45
-1.480230e-001 -3.771693e-001 -2.262255e+000 74 70 69
2.138369e-002 -3.953784e-001 -2.309153e+000 98 90 87
1.536047e-001 -3.861908e-001 -2.360489e+000 56 57 52
1.407448e-001 -3.919884e-001 -2.366249e+000 96 96 93
1.812433e-001 -3.901138e-001 -2.360275e+000 100 101 96
2.798517e-001 -3.924416e-001 -2.385289e+000 121 120 118
1.707906e-001 -4.203527e-001 -2.361350e+000 147 146 141
-3.759358e-002 -3.703903e-001 -2.277837e+000 65 64 62
1.816033e-001 -3.816598e-001 -2.376440e+000 25 25 23
1.600746e-001 -4.139246e-001 -2.361681e+000 60 56 56
-3.747882e-001 -2.621953e-001 -2.181044e+000 114 123 116
-6.901411e-002 -2.373949e-001 -2.248182e+000 157 162 152
-2.331245e-001 -3.412598e-001 -2.210501e+000 51 43 46
2.375908e-001 -3.632263e-001 -2.351079e+000 145 147 142
2.800459e-001 -3.673022e-001 -2.371525e+000 53 48 45
2.043048e-001 -1.564839e-001 -2.277173e+000 254 250 254
6.471246e-003 2.828677e-002 -1.422759e-002 0 255 0
6.289263e-003 2.765249e-002 -6.422323e-002 255 255 0
6.137982e-001 -6.423690e-001 -5.553696e-001 255 0 0
5.998883e-001 -6.258369e-001 -6.004607e-001 255 255 0
5.362296e-001 3.211436e-002 -5.032854e-002 0 255 0
5.262805e-001 3.097268e-002 -9.931540e-002 255 255 0
