ply
format ascii 1.0
element face 0
property list uchar int vertex_indices
element vertex 838
property float x
property float y
property float z
property uchar diffuse_red
property uchar diffuse_green
property uchar diffuse_blue
end_header
-4.492377e-001 -2.601917e-001 -2.182575e+000 146 143 150
2.592102e-001 -4.022100e-001 -2.379142e+000 37 36 34
-4.835298e-001 -2.267819e-001 -2.172296e+000 217 214 211
-1.839061e-001 -3.604012e-001 -2.241131e+000 118 117 115
1.714979e-001 -3.521180e-001 -2.346942e+000 119 120 112
1.142819e-001 -1.300356e-001 -2.263008e+000 118 129 125
2.005064e-001 -1.597305e-001 -2.267749e+000 247 243 238
2.104678e-001 -1.689983e-001 -2.270325e+000 236 229 238
2.028587e-001 -1.718438e-001 -2.267905e+000 208 207 208
2.079261e-001 -1.770813e-001 -2.268208e+000 216 215 221
3.194134e-001 -2.329213e-001 -2.351018e+000 75 84 81
9.912780e-002 -2.167945e-001 -2.264270e+000 90 94 95
-4.938749e-001 -1.940890e-001 -2.167549e+000 189 186 173
2.456289e-001 -3.405942e-001 -2.357337e+000 45 46 41
2.136097e-001 -3.611222e-001 -2.352421e+000 70 72 67
1.305828e-001 -3.771676e-001 -2.353182e+000 70 75 71
1.728955e-001 -3.902428e-001 -2.364148e+000 88 94 87
2.114794e-001 -3.937508e-001 -2.361743e+000 33 34 29
2.201870e-001 -3.974436e-001 -2.369809e+000 74 73 71
1.206113e-001 -3.813809e-001 -2.350194e+000 114 117 113
-1.722127e-001 -3.231783e-001 -2.220881e+000 73 76 75
2.164628e-001 -4.097825e-001 -2.376242e+000 56 59 52
-6.862879e-002 -3.566917e-001 -2.268220e+000 94 98 97
2.526410e-001 -4.193870e-001 -2.383187e+000 62 66 65
-5.446928e-002 -3.633486e-001 -2.275959e+000 75 80 76
1.769237e-001 -4.077277e-001 -2.364283e+000 103 107 107
-2.796738e-002 -3.686066e-001 -2.283022e+000 150 155 151
-2.017954e-001 -3.365762e-001 -2.218631e+000 104 105 100
-4.136461e-002 -3.696652e-001 -2.285125e+000 67 71 66
1.848175e-001 -4.180344e-001 -2.367317e+000 58 60 57
-1.843354e-001 -3.483114e-001 -2.232588e+000 64 64 62
-8.818928e-003 -3.825146e-001 -2.295252e+000 66 68 67
-1.843710e-001 -3.554582e-001 -2.238828e+000 72 71 69
3.442152e-002 -4.001876e-001 -2.315237e+000 61 63 61
-1.980424e-001 -3.611080e-001 -2.239159e+000 103 102 98
2.015085e-001 -1.592356e-001 -2.272107e+000 248 244 240
1.900868e-001 -3.877663e-001 -2.364861e+000 24 25 22
-1.635055e-001 -3.719075e-001 -2.254643e+000 48 49 44
1.754513e-001 -3.536517e-001 -2.344783e+000 118 118 110
-2.646663e-001 -4.109242e-001 -2.258413e+000 130 130 114
2.100972e-001 -3.574895e-001 -2.352379e+000 40 41 38
-4.362644e-001 -2.576544e-001 -2.184827e+000 234 235 230
-1.963832e-002 3.217829e-001 -2.137725e+000 107 109 106
-3.798643e-002 3.106563e-001 -2.132095e+000 106 108 105
-2.338534e-002 3.048307e-001 -2.144992e+000 98 99 94
-2.804202e-001 -5.470978e-002 -2.162363e+000 109 119 117
-2.987761e-001 -6.716536e-002 -2.153569e+000 91 102 97
-2.915428e-001 -6.671307e-002 -2.154219e+000 117 128 125
2.021032e-001 -1.473962e-001 -2.272854e+000 251 249 246
2.596733e-001 -1.565661e-001 -2.314865e+000 171 174 182
2.264500e-001 -1.651068e-001 -2.280236e+000 164 161 170
-1.264048e-001 -1.712330e-001 -2.222678e+000 188 194 194
2.040565e-001 -1.810751e-001 -2.267633e+000 191 192 192
1.168285e-001 -1.882788e-001 -2.253956e+000 115 121 121
-1.012279e-001 -2.071860e-001 -2.236520e+000 179 184 187
-1.048827e-001 -2.123581e-001 -2.233125e+000 171 176 180
-4.868562e-001 -2.256098e-001 -2.169718e+000 130 128 132
-6.644514e-002 -2.457482e-001 -2.258086e+000 169 174 177
-1.604954e-001 -2.438527e-001 -2.202374e+000 129 137 134
3.047226e-001 -2.587381e-001 -2.342811e+000 76 85 81
-7.375129e-002 -2.634710e-001 -2.250159e+000 171 179 181
-6.927456e-002 -2.673399e-001 -2.252816e+000 186 192 195
-5.200746e-002 -2.844388e-001 -2.264202e+000 183 189 189
-5.278985e-002 -2.897172e-001 -2.261020e+000 170 174 175
-4.840262e-002 -2.985065e-001 -2.263546e+000 125 131 131
1.687305e-001 -3.303776e-001 -2.343809e+000 89 90 84
2.021276e-001 -3.318961e-001 -2.346200e+000 38 39 30
2.557355e-001 -3.423045e-001 -2.357509e+000 115 115 107
8.319777e-002 -3.402633e-001 -2.324726e+000 139 144 140
1.711163e-001 -3.509968e-001 -2.344425e+000 91 92 86
1.994844e-001 -3.493040e-001 -2.355293e+000 91 92 86
2.634491e-001 -3.528984e-001 -2.366874e+000 88 89 83
-2.577179e-001 -3.342337e-001 -2.201604e+000 110 111 105
-1.957548e-001 -3.562893e-001 -2.234404e+000 65 65 59
1.486433e-001 -3.757496e-001 -2.361946e+000 72 76 71
1.982877e-001 -3.731280e-001 -2.351208e+000 99 101 94
3.652104e-002 -3.694311e-001 -2.306653e+000 100 106 103
2.718122e-001 -3.828465e-001 -2.384365e+000 93 95 90
-1.869875e-001 -3.685073e-001 -2.245474e+000 84 84 82
1.541165e-001 -3.867674e-001 -2.361909e+000 51 55 51
1.408669e-001 -3.916244e-001 -2.354565e+000 76 78 73
1.701590e-001 -3.914468e-001 -2.358497e+000 121 126 120
9.453584e-002 -3.929490e-001 -2.334339e+000 93 98 94
2.431741e-001 -4.151150e-001 -2.378820e+000 58 60 57
1.327020e-001 -4.243244e-001 -2.355663e+000 41 44 37
2.552548e-001 -1.511610e-001 -2.287069e+000 159 164 169
2.215486e-001 -1.647708e-001 -2.279332e+000 231 229 240
2.060229e-001 -1.784288e-001 -2.273528e+000 170 172 171
-7.212185e-002 -2.377353e-001 -2.256462e+000 224 229 231
2.653106e-001 -4.125477e-001 -2.390481e+000 33 33 33
2.217287e-001 -3.416663e-001 -2.356474e+000 94 95 89
2.111660e-001 -3.578100e-001 -2.347272e+000 58 61 55
-2.329065e-001 -3.396328e-001 -2.207638e+000 108 107 102
4.028075e-002 -3.704860e-001 -2.308622e+000 82 88 85
1.652871e-001 -4.304928e-001 -2.372432e+000 111 117 112
-2.422832e-001 -3.629773e-001 -2.225292e+000 45 45 36
2.359211e-001 -4.059286e-001 -2.376400e+000 30 31 26
-1.145812e-002 3.784695e-001 -2.152603e+000 181 171 183
-1.867020e-002 3.771105e-001 -2.149254e+000 208 205 236
-5.013195e-003 3.761642e-001 -2.153877e+000 185 177 188
-2.232357e-002 3.665614e-001 -2.133316e+000 174 166 180
-6.885125e-003 3.667774e-001 -2.145683e+000 208 198 206
1.701234e-003 3.657187e-001 -2.155591e+000 224 220 213
-2.096183e-003 3.643950e-001 -2.148892e+000 146 138 143
-6.739768e-003 3.625933e-001 -2.147477e+000 237 233 226
-1.091378e-002 3.610841e-001 -2.145285e+000 199 186 185
-4.064608e-002 3.548612e-001 -2.126482e+000 237 232 234
-4.743718e-004 3.545402e-001 -2.151689e+000 213 209 222
-3.140704e-002 3.505639e-001 -2.128516e+000 231 223 230
-1.083307e-002 3.514039e-001 -2.141645e+000 187 182 187
-1.740108e-002 3.512932e-001 -2.138873e+000 250 247 243
-2.658160e-002 3.474475e-001 -2.134602e+000 201 196 211
-3.016622e-002 3.412054e-001 -2.129056e+000 247 243 248
-1.766411e-002 3.397471e-001 -2.137624e+000 216 217 217
-4.717200e-002 3.383802e-001 -2.124262e+000 236 237 242
-3.840097e-002 3.342517e-001 -2.126521e+000 163 164 165
-2.409131e-002 3.358184e-001 -2.133839e+000 190 189 194
-2.296004e-002 3.268475e-001 -2.135252e+000 98 100 100
1.173393e-002 3.252101e-001 -2.168540e+000 149 154 150
-1.714937e-001 2.953335e-001 -2.123777e+000 198 198 197
-7.246081e-002 2.942780e-001 -2.121756e+000 114 116 112
-1.726289e-001 2.920082e-001 -2.122435e+000 185 185 183
-1.845637e-001 2.920451e-001 -2.129064e+000 242 239 225
-1.567028e-001 2.783814e-001 -2.121901e+000 148 154 154
-5.700422e-002 2.725347e-001 -2.143311e+000 104 107 106
2.212945e-002 2.674394e-001 -2.193474e+000 103 102 98
-1.012857e-001 2.533330e-001 -2.131792e+000 146 146 144
1.580670e-001 -8.481992e-002 -2.294123e+000 112 125 122
-2.478816e-001 -8.285871e-002 -2.166039e+000 125 137 131
1.059949e-001 -1.043826e-001 -2.280803e+000 102 113 107
-3.213709e-001 -1.049767e-001 -2.142540e+000 108 116 118
-4.569304e-001 -1.250943e-001 -2.173269e+000 234 230 228
2.750537e-001 -1.509383e-001 -2.328239e+000 88 94 90
-4.900761e-001 -1.629754e-001 -2.164131e+000 158 155 140
-4.934022e-001 -1.740030e-001 -2.166152e+000 205 202 195
-2.267901e-001 -1.816092e-001 -2.166224e+000 107 114 111
-4.941811e-001 -1.852552e-001 -2.167321e+000 170 166 157
-1.070569e-001 -1.901222e-001 -2.236951e+000 194 197 203
-4.943277e-001 -1.903627e-001 -2.168844e+000 141 138 130
-8.861982e-002 -1.958735e-001 -2.249822e+000 186 191 194
-4.950497e-001 -1.976931e-001 -2.168898e+000 244 241 231
-5.004330e-001 -2.065781e-001 -2.174754e+000 206 202 207
-4.957432e-001 -2.085585e-001 -2.175193e+000 218 215 207
-4.945523e-001 -2.122004e-001 -2.169179e+000 157 154 150
-4.909652e-001 -2.140440e-001 -2.172061e+000 190 188 179
-4.943602e-001 -2.182377e-001 -2.174804e+000 116 111 115
-4.912953e-001 -2.237453e-001 -2.172751e+000 211 210 206
-4.941033e-001 -2.293467e-001 -2.169106e+000 145 142 165
-7.039213e-002 -2.390875e-001 -2.258076e+000 205 209 213
8.328834e-002 -2.436586e-001 -2.287566e+000 125 130 124
-4.825454e-001 -2.470205e-001 -2.177813e+000 166 167 190
9.529242e-002 -2.568687e-001 -2.291581e+000 81 82 77
1.263660e-001 -2.598894e-001 -2.281880e+000 139 140 134
-3.884447e-001 -2.560971e-001 -2.207393e+000 70 76 72
1.079603e-001 -2.658203e-001 -2.296276e+000 119 121 116
3.092393e-001 -2.929135e-001 -2.354136e+000 70 74 70
3.142740e-001 -2.931387e-001 -2.351599e+000 122 127 123
3.043409e-001 -2.982163e-001 -2.362377e+000 81 86 82
4.229660e-002 -2.992265e-001 -2.328697e+000 89 99 96
3.072390e-001 -3.012409e-001 -2.356705e+000 131 134 128
-4.990160e-002 -2.946718e-001 -2.269917e+000 165 171 170
1.966735e-001 -3.025132e-001 -2.316166e+000 51 53 42
1.299200e-001 -3.077356e-001 -2.334168e+000 88 89 84
1.193601e-001 -3.156017e-001 -2.343301e+000 69 70 64
2.540656e-001 -3.135649e-001 -2.337763e+000 115 117 104
3.196422e-001 -3.195021e-001 -2.366515e+000 147 149 144
1.246794e-001 -3.216532e-001 -2.349491e+000 77 79 76
1.783393e-001 -3.221079e-001 -2.337597e+000 88 88 80
1.653711e-001 -3.287703e-001 -2.344817e+000 97 98 92
-1.926929e-001 -3.128192e-001 -2.207976e+000 123 125 124
1.524318e-001 -3.349468e-001 -2.353537e+000 99 100 94
2.559611e-001 -3.343231e-001 -2.354138e+000 105 105 96
2.771654e-001 -3.381171e-001 -2.358895e+000 67 67 59
9.373606e-002 -3.372785e-001 -2.348119e+000 77 79 78
2.405184e-001 -3.388390e-001 -2.357133e+000 91 92 87
1.060966e-001 -3.478891e-001 -2.351855e+000 86 86 84
2.845637e-001 -3.509777e-001 -2.368478e+000 61 61 53
2.964526e-001 -3.482390e-001 -2.363980e+000 85 84 80
-1.759051e-001 -3.321615e-001 -2.221208e+000 97 99 96
1.901940e-001 -3.512666e-001 -2.349295e+000 75 80 73
2.889318e-001 -3.584612e-001 -2.372846e+000 70 71 66
-1.808365e-001 -3.400960e-001 -2.228988e+000 103 105 102
2.199805e-001 -3.573867e-001 -2.351948e+000 77 79 73
5.280525e-002 -3.559417e-001 -2.319304e+000 120 124 123
1.141527e-001 -3.638949e-001 -2.352092e+000 53 55 50
1.318814e-001 -3.667904e-001 -2.359336e+000 65 67 62
1.242651e-001 -3.679010e-001 -2.357222e+000 69 71 65
6.754972e-001 -3.968182e-001 -2.488981e+000 73 78 74
-3.631426e-002 -3.713774e-001 -2.285190e+000 76 78 73
-1.779163e-001 -3.715816e-001 -2.250563e+000 114 113 109
-2.161980e-002 -3.768397e-001 -2.290275e+000 87 89 86
-1.606451e-001 -3.729989e-001 -2.255343e+000 58 60 55
-2.046682e-001 -3.721117e-001 -2.239633e+000 86 87 79
-1.965628e-001 -3.758258e-001 -2.249956e+000 128 129 123
2.269951e-001 -3.980136e-001 -2.368308e+000 47 44 42
-1.716484e-001 -3.813563e-001 -2.254126e+000 84 87 80
1.336634e-002 -3.951565e-001 -2.307422e+000 144 146 141
2.273513e-001 -4.092051e-001 -2.374665e+000 88 89 84
-5.836386e-002 -4.064472e-001 -2.298511e+000 109 109 107
1.530611e-002 -4.132861e-001 -2.315048e+000 117 116 114
2.010794e-001 -4.487712e-001 -2.377277e+000 65 66 61
2.784606e-001 -4.493816e-001 -2.371837e+000 77 81 79
2.922303e-001 -4.508930e-001 -2.375227e+000 44 48 47
2.409351e-001 -4.535109e-001 -2.376110e+000 66 71 65
2.662240e-001 -4.596730e-001 -2.365759e+000 75 77 74
1.528484e-001 -4.687176e-001 -2.340363e+000 87 88 82
-1.602630e-001 -5.020809e-001 -2.271829e+000 81 83 78
-7.786609e-002 -5.013070e-001 -2.269589e+000 77 79 74
-3.653662e-001 -5.053544e-001 -2.262098e+000 90 94 93
-3.837083e-001 -5.128237e-001 -2.247647e+000 90 90 86
-2.301684e-001 -5.133500e-001 -2.249336e+000 105 108 100
-4.109468e-001 -5.181834e-001 -2.232292e+000 190 187 169
-4.071903e-001 -5.199335e-001 -2.234015e+000 108 107 82
-3.136162e-002 3.544417e-001 -2.131630e+000 175 162 174
-4.187482e-002 3.484931e-001 -2.127017e+000 153 144 146
1.612719e-001 -1.162584e-001 -2.270852e+000 117 128 123
-4.758817e-001 -2.484250e-001 -2.173967e+000 124 121 150
-4.431339e-001 -2.581825e-001 -2.192410e+000 197 199 196
3.098535e-001 -2.831885e-001 -2.351323e+000 145 154 149
2.504489e-001 -3.064263e-001 -2.333855e+000 70 70 64
1.053105e-001 -3.475354e-001 -2.350594e+000 89 89 87
1.062084e-001 -3.744263e-001 -2.348527e+000 87 92 88
1.836029e-001 -4.018148e-001 -2.366932e+000 120 124 122
9.942857e-002 -2.163048e-001 -2.265936e+000 86 90 91
-4.892071e-001 -2.192847e-001 -2.173529e+000 120 119 113
-4.795625e-001 -2.281818e-001 -2.164581e+000 172 170 160
2.265619e-001 -3.377814e-001 -2.353924e+000 126 127 121
1.172339e-001 -3.616531e-001 -2.341276e+000 52 52 50
-1.857504e-001 -3.540877e-001 -2.234265e+000 44 43 41
-2.010642e-001 -3.585946e-001 -2.235576e+000 57 56 51
2.380125e-001 -3.890608e-001 -2.358231e+000 87 84 79
-1.450143e-001 -3.809861e-001 -2.274369e+000 74 74 70
1.807716e-001 -4.237969e-001 -2.384576e+000 103 108 102
5.708011e-001 -3.324155e-002 -2.412685e+000 20 23 31
1.797213e-001 -3.966995e-001 -2.354465e+000 112 120 115
1.926722e-001 -4.020974e-001 -2.372812e+000 45 47 43
-7.281295e-002 3.540843e-001 -2.117716e+000 215 205 214
-6.652497e-002 3.520235e-001 -2.119104e+000 198 192 203
-8.353882e-002 3.451563e-001 -2.115739e+000 183 167 176
-6.873560e-002 3.402967e-001 -2.119663e+000 165 148 148
-9.295689e-002 3.294596e-001 -2.110647e+000 172 170 166
-6.867182e-002 3.325737e-001 -2.116740e+000 187 187 208
-6.588498e-002 3.338187e-001 -2.120002e+000 198 202 222
-4.458795e-002 3.324524e-001 -2.120052e+000 192 191 204
-4.357259e-002 3.304066e-001 -2.124485e+000 176 173 169
-5.317724e-002 3.276721e-001 -2.122725e+000 178 181 185
-7.687311e-002 3.235287e-001 -2.122737e+000 176 176 178
-6.549900e-002 3.134886e-001 -2.121058e+000 114 113 118
-1.000796e-001 3.044680e-001 -2.115942e+000 152 154 156
-1.402751e-001 2.677150e-001 -2.124792e+000 107 110 114
-6.149083e-002 2.649245e-001 -2.146385e+000 153 150 145
-2.258386e-001 -1.078486e-001 -2.168955e+000 143 147 151
-1.883230e-001 -1.563474e-001 -2.182079e+000 136 140 140
5.667658e-001 -1.108898e-001 -2.378784e+000 77 79 78
2.039445e-001 -1.577035e-001 -2.272489e+000 212 205 209
2.003567e-001 -1.591862e-001 -2.269463e+000 244 237 242
6.080613e-001 -1.121185e-001 -2.390709e+000 105 105 109
-1.407592e-001 -2.064963e-001 -2.208485e+000 110 109 105
-1.054298e-001 -2.015597e-001 -2.237792e+000 188 185 195
-9.685195e-002 -2.185158e-001 -2.242097e+000 220 225 233
-1.010557e-001 -2.402190e-001 -2.233422e+000 134 139 148
-8.175105e-002 -2.435082e-001 -2.246801e+000 193 197 204
-7.535845e-002 -2.509261e-001 -2.248514e+000 200 198 209
2.993832e-001 -2.200825e-001 -2.339754e+000 107 113 111
-6.225952e-002 -2.709389e-001 -2.258809e+000 209 209 216
3.321145e-001 -2.595945e-001 -2.360793e+000 96 106 98
3.083745e-001 -2.665122e-001 -2.347463e+000 101 103 99
3.314644e-001 -2.648709e-001 -2.361999e+000 67 74 73
-2.383122e-001 -3.549868e-001 -2.219723e+000 53 47 44
-2.512248e-001 -3.575470e-001 -2.218640e+000 116 107 103
-2.300617e-001 -3.568986e-001 -2.221112e+000 113 102 98
3.756489e-002 -3.693980e-001 -2.309672e+000 96 98 94
2.758898e-001 -3.516879e-001 -2.366370e+000 103 98 92
3.205317e-003 -3.877521e-001 -2.301402e+000 90 86 83
9.487332e-003 -3.901242e-001 -2.303388e+000 90 85 81
2.416607e-002 -3.973932e-001 -2.310239e+000 98 97 90
-4.190662e-002 -4.115009e-001 -2.302799e+000 141 134 129
2.899472e-001 -3.740419e-001 -2.381644e+000 113 113 104
1.541997e-001 -3.864629e-001 -2.361906e+000 67 68 63
1.597241e-001 -3.875410e-001 -2.363680e+000 117 119 115
1.637862e-001 -3.883319e-001 -2.363987e+000 70 72 69
2.833780e-001 -3.821439e-001 -2.384817e+000 105 106 101
5.862236e-002 -4.087398e-001 -2.327739e+000 77 72 69
7.137771e-002 -4.126430e-001 -2.332697e+000 69 68 64
1.911487e-001 -3.989024e-001 -2.370098e+000 45 43 44
1.059058e-002 -4.216698e-001 -2.325310e+000 137 131 126
1.480095e-001 -4.062209e-001 -2.355068e+000 90 88 91
1.921789e-001 -4.148091e-001 -2.368831e+000 130 130 125
2.731274e-001 -4.145013e-001 -2.389147e+000 82 82 77
2.254358e-001 -4.287294e-001 -2.372512e+000 99 99 97
2.290438e-001 -3.041551e-001 -2.323935e+000 70 68 57
-1.879483e-001 -3.782097e-001 -2.252299e+000 143 140 134
2.523023e-001 -3.657330e-001 -2.366998e+000 121 121 113
1.275379e-001 -4.029233e-001 -2.349560e+000 109 106 106
2.107512e-001 -4.057616e-001 -2.368759e+000 43 42 39
1.690750e-001 -4.199609e-001 -2.363312e+000 136 137 134
1.083589e-001 -2.492099e-001 -2.277022e+000 95 94 90
-1.743085e-001 -3.259637e-001 -2.223349e+000 76 75 79
2.294045e-001 -3.006516e-001 -2.328412e+000 73 68 62
2.132135e-001 -3.251659e-001 -2.337800e+000 58 56 45
-1.482735e-001 -3.767641e-001 -2.259734e+000 74 70 69
2.146595e-002 -3.952160e-001 -2.311012e+000 98 90 87
1.542997e-001 -3.858552e-001 -2.362353e+000 56 57 52
1.428989e-001 -3.924783e-001 -2.362670e+000 96 96 93
1.820833e-001 -3.899145e-001 -2.363281e+000 100 101 96
2.811631e-001 -3.924742e-001 -2.387453e+000 121 120 118
1.714258e-001 -4.204157e-001 -2.364277e+000 147 146 141
-3.977361e-002 -3.698803e-001 -2.284583e+000 65 64 62
1.859836e-001 -3.821705e-001 -2.363352e+000 25 25 23
1.605811e-001 -4.135630e-001 -2.360845e+000 60 56 56
-3.770127e-001 -2.617017e-001 -2.180369e+000 114 123 116
-6.895944e-002 -2.363962e-001 -2.248795e+000 157 162 152
-2.344988e-001 -3.412331e-001 -2.211300e+000 51 43 46
2.387002e-001 -3.631271e-001 -2.353286e+000 145 147 142
2.813734e-001 -3.672419e-001 -2.373689e+000 53 48 45
2.073321e-001 -1.540006e-001 -2.274420e+000 254 250 254
-8.025102e-002 3.776647e-001 -2.122309e+000 193 187 196
-7.475612e-002 3.761924e-001 -2.121013e+000 192 189 197
-6.948700e-002 3.722352e-001 -2.120542e+000 214 208 217
-1.932708e-001 3.706960e-001 -2.130195e+000 137 138 142
-7.132812e-002 3.668117e-001 -2.120249e+000 145 139 151
-3.177390e-002 3.680426e-001 -2.131597e+000 219 216 221
-1.869282e-002 3.700396e-001 -2.141562e+000 180 172 182
-2.582034e-002 3.658954e-001 -2.134107e+000 204 199 203
-7.857515e-002 3.583561e-001 -2.116874e+000 209 204 215
-1.973530e-002 3.617764e-001 -2.135247e+000 245 238 245
-2.059800e-001 3.523391e-001 -2.135659e+000 187 180 197
-6.868623e-003 3.541554e-001 -2.145149e+000 192 186 197
-3.448063e-002 3.279622e-001 -2.127570e+000 169 170 164
-7.685565e-002 3.082446e-001 -2.118468e+000 153 157 154
-1.307851e-002 2.796010e-001 -2.168511e+000 105 109 110
-1.396146e-001 2.679036e-001 -2.127311e+000 93 102 101
-2.040347e-001 2.658388e-001 -2.147152e+000 130 135 133
-1.628750e-002 2.608706e-001 -2.184592e+000 104 109 106
-2.986931e-001 -1.030629e-002 -2.175140e+000 101 110 107
-2.873967e-001 -1.024058e-002 -2.177948e+000 127 134 127
-3.039220e-001 -1.605239e-002 -2.170152e+000 103 112 109
-3.698876e-001 -3.556189e-002 -2.152648e+000 100 106 106
-3.313406e-001 -3.752504e-002 -2.156282e+000 100 108 106
-2.625037e-001 -4.011331e-002 -2.172641e+000 135 139 138
-2.721028e-001 -4.703706e-002 -2.169743e+000 100 108 104
-4.024128e-001 -4.853411e-002 -2.151036e+000 194 190 190
-3.708874e-001 -5.212901e-002 -2.148133e+000 140 151 146
-3.957888e-001 -6.279550e-002 -2.147216e+000 213 210 214
-3.422548e-001 -6.336073e-002 -2.147666e+000 105 113 116
2.260467e-001 -7.499812e-002 -2.310287e+000 172 168 173
2.108683e-001 -8.984964e-002 -2.300350e+000 223 222 221
-3.754511e-001 -8.916525e-002 -2.142437e+000 181 175 176
-3.754961e-001 -9.250735e-002 -2.144266e+000 219 213 215
2.264746e-001 -1.156198e-001 -2.307781e+000 153 152 171
2.148023e-001 -1.240156e-001 -2.291905e+000 205 206 208
2.526211e-001 -1.276861e-001 -2.320365e+000 99 104 99
2.341321e-001 -1.334205e-001 -2.302672e+000 197 196 202
2.024497e-001 -1.336870e-001 -2.276557e+000 198 197 193
-1.662478e-001 -1.352759e-001 -2.196350e+000 216 215 220
8.442695e-002 -1.395175e-001 -2.270699e+000 98 108 106
2.016940e-001 -1.378877e-001 -2.273754e+000 248 247 243
9.090928e-002 -1.426541e-001 -2.269555e+000 88 97 94
8.097250e-002 -1.495190e-001 -2.273442e+000 118 129 128
7.273009e-002 -1.520157e-001 -2.277880e+000 110 121 117
1.980839e-001 -1.541293e-001 -2.271584e+000 151 151 146
2.585047e-001 -1.589187e-001 -2.314779e+000 212 215 223
1.210388e-001 -1.564963e-001 -2.256796e+000 110 119 118
2.656301e-001 -1.679861e-001 -2.317752e+000 194 200 208
2.333392e-001 -1.679678e-001 -2.288837e+000 175 173 185
2.189533e-001 -1.740171e-001 -2.275452e+000 225 226 230
2.473551e-001 -1.765762e-001 -2.302843e+000 181 185 188
2.705537e-001 -1.776851e-001 -2.319867e+000 165 176 179
-2.230181e-001 -1.709963e-001 -2.164163e+000 123 130 126
2.747542e-001 -1.917794e-001 -2.316162e+000 171 176 179
-5.030769e-001 -1.986095e-001 -2.174764e+000 239 237 243
-5.140121e-001 -2.043467e-001 -2.179740e+000 183 181 194
3.377900e-001 -2.248358e-001 -2.335793e+000 71 77 67
2.872335e-001 -2.263991e-001 -2.330708e+000 84 95 91
-5.128750e-001 -2.248587e-001 -2.185248e+000 165 162 180
9.820402e-002 -2.321809e-001 -2.269436e+000 114 118 117
-5.140609e-001 -2.321311e-001 -2.184388e+000 162 159 168
2.900116e-001 -2.444151e-001 -2.336313e+000 88 97 92
-4.934539e-001 -2.339532e-001 -2.176996e+000 212 212 223
-4.843007e-001 -2.336850e-001 -2.173332e+000 196 190 215
-4.513271e-001 -2.372793e-001 -2.207856e+000 98 108 100
-5.096882e-001 -2.378741e-001 -2.184904e+000 158 156 159
-5.326141e-001 -2.398711e-001 -2.199465e+000 180 174 186
-5.041429e-001 -2.400731e-001 -2.183467e+000 205 205 210
-5.018748e-001 -2.402894e-001 -2.184132e+000 132 132 130
-4.046186e-001 -2.420271e-001 -2.214451e+000 61 67 62
-4.172630e-001 -2.450733e-001 -2.217573e+000 98 106 97
-4.879059e-001 -2.422518e-001 -2.179151e+000 160 158 167
-4.016620e-001 -2.463245e-001 -2.218871e+000 112 116 115
-4.975556e-001 -2.438769e-001 -2.181249e+000 164 162 163
-4.364986e-001 -2.473762e-001 -2.207718e+000 107 115 112
1.258705e-001 -2.523289e-001 -2.277868e+000 122 124 120
-4.916203e-001 -2.462152e-001 -2.178840e+000 144 142 145
-1.198016e-001 -2.499220e-001 -2.223155e+000 123 133 134
-5.174753e-001 -2.511482e-001 -2.195575e+000 177 171 187
-4.974055e-001 -2.495688e-001 -2.182613e+000 165 163 170
3.088478e-001 -2.670016e-001 -2.351763e+000 91 102 97
-4.733267e-001 -2.528163e-001 -2.179091e+000 152 151 177
-3.828895e-001 -2.590353e-001 -2.202369e+000 78 83 79
2.281453e-001 -2.679785e-001 -2.307163e+000 106 108 107
-3.768900e-001 -2.622082e-001 -2.197839e+000 87 92 86
-5.756340e-002 -2.730524e-001 -2.264214e+000 167 174 173
-6.413026e-002 -2.740024e-001 -2.255741e+000 189 194 197
1.836768e-001 -2.823574e-001 -2.295328e+000 77 78 72
-3.852646e-001 -2.768748e-001 -2.184163e+000 149 149 137
2.006441e-001 -2.896561e-001 -2.305638e+000 96 97 89
3.298354e-001 -2.982327e-001 -2.364856e+000 76 82 78
2.263481e-001 -2.968324e-001 -2.319639e+000 75 72 68
2.330301e-001 -3.009003e-001 -2.319540e+000 77 76 71
2.508043e-001 -3.061544e-001 -2.333912e+000 79 79 72
-7.436025e-002 -3.106734e-001 -2.251138e+000 118 127 128
2.132656e-001 -3.242277e-001 -2.341088e+000 49 49 40
-1.340983e-001 -3.249991e-001 -2.236708e+000 101 106 106
1.681916e-001 -3.523694e-001 -2.342005e+000 103 103 96
1.203663e-001 -3.559729e-001 -2.354779e+000 70 70 70
2.828433e-001 -3.618379e-001 -2.372347e+000 109 110 105
7.932597e-001 -3.788221e-001 -2.485477e+000 114 115 102
-2.348304e-001 -3.402782e-001 -2.214001e+000 59 60 54
2.393924e-001 -3.637677e-001 -2.359130e+000 134 141 137
-8.407694e-002 -3.514933e-001 -2.262199e+000 104 108 112
-2.448296e-002 -3.569153e-001 -2.282798e+000 108 111 106
-2.336404e-001 -3.494542e-001 -2.220197e+000 149 146 139
-2.029586e-001 -3.596740e-001 -2.240671e+000 75 73 68
7.701953e-001 -3.944658e-001 -2.460101e+000 221 219 208
-2.270839e-002 -3.683982e-001 -2.284968e+000 133 135 131
-1.242258e-001 -3.731385e-001 -2.256855e+000 106 104 107
-2.104069e-002 -3.760299e-001 -2.282212e+000 81 84 81
7.167550e-001 -4.035093e-001 -2.441642e+000 106 103 93
-2.495462e-001 -3.729213e-001 -2.233407e+000 138 137 124
7.394738e-001 -4.051394e-001 -2.441995e+000 154 144 134
-1.622465e-001 -3.769417e-001 -2.255074e+000 134 137 130
7.071519e-001 -4.088544e-001 -2.439553e+000 153 149 127
7.229462e-001 -4.044633e-001 -2.425434e+000 75 68 68
2.091791e-001 -4.004160e-001 -2.368410e+000 65 65 63
-3.108803e-001 -3.814244e-001 -2.227199e+000 137 130 116
6.987389e-001 -4.142922e-001 -2.423749e+000 137 138 114
-2.733774e-001 -3.877058e-001 -2.240343e+000 123 121 106
-7.675721e-002 -4.008026e-001 -2.286685e+000 109 110 105
-4.089153e-002 -4.116813e-001 -2.303594e+000 115 114 109
1.162372e-001 -4.249666e-001 -2.349533e+000 136 136 134
1.206350e-002 -4.223697e-001 -2.325641e+000 98 97 94
1.775194e-001 -4.307319e-001 -2.371008e+000 106 109 104
-1.562454e-001 -4.238051e-001 -2.293711e+000 105 106 101
1.168427e-001 -4.374681e-001 -2.358872e+000 76 78 75
1.280193e-001 -4.373820e-001 -2.343529e+000 68 70 67
3.544005e-001 -4.617651e-001 -2.355878e+000 252 244 237
7.403018e-002 -4.791409e-001 -2.321014e+000 99 104 98
-3.868233e-002 -4.884946e-001 -2.300604e+000 77 81 79
2.347488e-002 -4.926530e-001 -2.312488e+000 171 169 149
-3.227953e-001 -5.054217e-001 -2.264693e+000 96 98 93
-1.967555e-001 -5.094640e-001 -2.260305e+000 88 93 88
-4.027356e-001 -5.214302e-001 -2.236037e+000 171 170 159
-1.033160e-002 3.576239e-001 -2.143135e+000 150 137 146
2.144252e-001 -9.187368e-002 -2.305285e+000 255 253 254
-4.089915e-001 -9.690402e-002 -2.172817e+000 185 176 184
2.144453e-001 -1.646078e-001 -2.275886e+000 184 178 187
-4.939621e-001 -1.791628e-001 -2.164102e+000 134 132 119
-4.910729e-001 -2.127521e-001 -2.163476e+000 223 219 219
-5.038363e-001 -2.315489e-001 -2.181217e+000 129 127 140
-4.022751e-001 -2.398577e-001 -2.217722e+000 70 72 71
2.016266e-001 -3.324984e-001 -2.345186e+000 33 34 26
1.986070e-001 -3.479304e-001 -2.352106e+000 90 92 85
1.684212e-001 -4.120835e-001 -2.320330e+000 127 130 123
-2.899547e-002 3.525854e-001 -2.126442e+000 171 161 172
4.219993e-004 3.532373e-001 -2.151911e+000 234 231 227
-3.705082e-001 -6.056174e-002 -2.149805e+000 106 116 112
2.158055e-001 -8.104648e-002 -2.306064e+000 252 251 248
2.195447e-001 -9.351031e-002 -2.316285e+000 255 254 255
-4.392010e-001 -1.019707e-001 -2.138175e+000 254 251 254
2.348123e-001 -1.207768e-001 -2.310903e+000 154 156 178
-4.562870e-001 -1.240407e-001 -2.179594e+000 222 219 210
2.329502e-001 -1.702551e-001 -2.292449e+000 212 210 217
-4.990799e-001 -2.375450e-001 -2.197039e+000 125 123 138
-4.765577e-001 -2.420383e-001 -2.178315e+000 254 253 252
-3.827135e-001 -2.786902e-001 -2.197703e+000 144 145 141
-1.732804e-001 -3.241169e-001 -2.220209e+000 70 73 72
-1.841834e-001 -3.467828e-001 -2.225368e+000 70 70 68
-5.466410e-002 -3.629252e-001 -2.275073e+000 68 73 69
-1.770501e-001 -3.590458e-001 -2.243178e+000 135 136 131
1.856932e-001 -3.824242e-001 -2.360515e+000 17 18 19
-1.768881e-001 -3.786829e-001 -2.254933e+000 64 65 59
6.960409e-001 -4.199378e-001 -2.418554e+000 58 56 46
-5.103671e-001 -2.464405e-001 -2.205353e+000 186 186 196
-3.873612e-001 -2.729993e-001 -2.197364e+000 137 138 127
5.150794e-001 -3.111244e-001 -2.366873e+000 81 91 82
-1.377874e-001 -3.796250e-001 -2.261986e+000 61 60 58
2.133258e-001 -4.000545e-001 -2.365256e+000 26 26 24
6.912733e-001 -4.197331e-001 -2.407422e+000 57 62 49
8.963141e-002 -4.125973e-001 -2.320352e+000 39 40 39
-3.855822e-001 -2.676294e-001 -2.198664e+000 115 120 115
-1.742580e-001 -3.683958e-001 -2.254255e+000 68 67 63
-4.878121e-001 -1.677647e-001 -2.167475e+000 141 138 132
-4.243351e-001 -2.656752e-001 -2.222964e+000 254 254 255
5.326575e-002 3.538723e-001 -2.234417e+000 121 121 121
6.943816e-002 3.136510e-001 -2.247298e+000 138 139 141
6.350685e-003 2.436474e-001 -2.217151e+000 138 135 134
9.452186e-003 2.451617e-001 -2.220217e+000 99 92 93
-6.557890e-003 2.285501e-001 -2.223536e+000 125 124 130
-2.662842e-001 -1.688580e-001 -2.154192e+000 116 120 123
2.017698e-001 -1.382821e-001 -2.274258e+000 210 205 209
2.511995e-001 -1.278671e-001 -2.316603e+000 99 101 98
2.053762e-001 -1.443549e-001 -2.274390e+000 193 187 189
-1.361579e-001 -1.769227e-001 -2.214680e+000 114 117 118
1.203461e-001 -1.565909e-001 -2.254094e+000 120 125 127
2.420534e-001 -1.460140e-001 -2.300248e+000 196 193 201
1.876796e-001 -1.615018e-001 -2.259059e+000 157 161 162
1.626473e-001 -1.661154e-001 -2.255910e+000 125 126 131
2.046609e-001 -1.631770e-001 -2.269510e+000 255 249 254
2.058283e-001 -1.652218e-001 -2.272515e+000 175 165 174
1.954355e-001 -1.746702e-001 -2.261079e+000 133 136 140
2.004698e-001 -1.738712e-001 -2.268610e+000 145 145 151
2.609940e-001 -1.598044e-001 -2.315523e+000 131 132 136
2.171416e-001 -1.741328e-001 -2.275989e+000 216 212 217
2.450465e-001 -1.765061e-001 -2.293912e+000 180 178 180
2.392369e-001 -1.821762e-001 -2.288944e+000 166 167 166
2.580054e-001 -1.776256e-001 -2.309344e+000 180 186 186
5.724790e-001 -1.446262e-001 -2.393825e+000 59 60 57
2.491477e-001 -1.886984e-001 -2.297509e+000 129 128 133
2.540462e-001 -1.886736e-001 -2.300794e+000 196 199 204
-1.166254e-001 -2.361797e-001 -2.221210e+000 129 132 136
5.931334e-001 -1.565705e-001 -2.410356e+000 82 84 83
2.723528e-001 -1.931974e-001 -2.328873e+000 166 170 171
5.642477e-001 -1.642608e-001 -2.407420e+000 97 99 94
2.586082e-001 -2.064029e-001 -2.307691e+000 122 125 125
-1.201697e-001 -2.495341e-001 -2.221807e+000 125 129 138
3.045207e-001 -2.067880e-001 -2.344982e+000 127 132 135
2.986195e-001 -2.117116e-001 -2.339576e+000 104 110 107
6.150277e-001 -1.798872e-001 -2.432881e+000 72 72 72
2.870429e-001 -2.264138e-001 -2.332666e+000 91 95 94
5.894188e-001 -1.885486e-001 -2.432939e+000 96 97 98
3.138970e-001 -2.255071e-001 -2.347906e+000 66 71 67
-5.927061e-002 -2.720470e-001 -2.259514e+000 190 188 196
2.467959e-001 -2.515066e-001 -2.304855e+000 137 136 136
2.311557e-001 -2.587938e-001 -2.293312e+000 131 127 126
6.551631e-001 -1.985411e-001 -2.454824e+000 68 70 66
2.116601e-001 -2.826009e-001 -2.303813e+000 113 103 101
3.187418e-001 -2.665113e-001 -2.353240e+000 107 109 103
-1.712608e-001 -3.235250e-001 -2.220325e+000 65 64 69
5.500330e-001 -2.350974e-001 -2.458475e+000 65 63 59
-1.729903e-001 -3.287281e-001 -2.219595e+000 73 72 73
1.762956e-001 -2.936487e-001 -2.306997e+000 108 101 95
-4.288572e-001 -3.522346e-001 -2.211275e+000 127 110 103
2.116923e-001 -2.941917e-001 -2.311787e+000 73 68 62
6.542602e-001 -2.357118e-001 -2.479757e+000 50 52 49
2.264169e-001 -2.960221e-001 -2.316225e+000 65 58 48
-2.379652e-001 -3.465791e-001 -2.217709e+000 66 55 54
2.457354e-001 -3.073347e-001 -2.326563e+000 89 81 78
3.340525e-001 -2.947830e-001 -2.361390e+000 100 102 99
2.381009e-001 -3.072032e-001 -2.330960e+000 87 82 76
2.524956e-001 -3.066777e-001 -2.330379e+000 62 58 47
-2.043497e-001 -3.552959e-001 -2.234576e+000 91 84 74
6.808028e-001 -2.541823e-001 -2.494211e+000 71 70 68
1.633959e-001 -3.190210e-001 -2.336831e+000 115 112 104
2.540468e-001 -3.141914e-001 -2.337516e+000 140 137 125
6.088912e-001 -2.629645e-001 -2.492153e+000 91 90 88
2.472713e-001 -3.172533e-001 -2.335926e+000 95 92 81
2.770770e-001 -3.135888e-001 -2.346291e+000 132 131 123
-2.018680e-001 -3.658247e-001 -2.235925e+000 71 67 60
2.590110e-001 -3.184318e-001 -2.339900e+000 87 85 72
-2.061497e-001 -3.711536e-001 -2.243222e+000 96 92 83
-2.010875e-001 -3.739184e-001 -2.245746e+000 79 75 69
-1.777958e-001 -3.711532e-001 -2.249396e+000 128 120 118
-1.940565e-001 -3.760363e-001 -2.244787e+000 143 141 124
2.565758e-001 -3.281010e-001 -2.351563e+000 123 121 108
2.510516e-001 -3.309730e-001 -2.351425e+000 79 73 64
-1.242578e-001 -3.733995e-001 -2.258975e+000 106 102 100
2.073206e-002 -3.559336e-001 -2.299996e+000 120 120 121
1.809034e-001 -3.402550e-001 -2.351927e+000 87 86 83
1.069295e-001 -3.488984e-001 -2.349983e+000 122 120 121
2.199113e-001 -3.414815e-001 -2.356468e+000 121 116 110
-2.517757e-001 -3.967900e-001 -2.252414e+000 61 52 48
1.680222e-001 -3.524590e-001 -2.341181e+000 122 119 115
1.999569e-001 -3.492923e-001 -2.353099e+000 121 120 116
-1.938826e-002 -3.778150e-001 -2.289962e+000 87 82 78
-1.723210e-001 -3.934302e-001 -2.265244e+000 97 92 88
-2.666102e-001 -4.048307e-001 -2.255106e+000 115 106 91
2.318676e-001 -3.657743e-001 -2.350868e+000 133 133 130
-1.895679e-001 -4.131732e-001 -2.275574e+000 112 103 104
1.901824e-002 -3.950253e-001 -2.307662e+000 77 78 75
-1.915220e-001 -4.221587e-001 -2.291267e+000 121 115 112
1.808869e-001 -3.903811e-001 -2.366828e+000 131 131 127
2.332093e-001 -3.883541e-001 -2.355920e+000 133 125 123
2.368613e-001 -3.934127e-001 -2.361084e+000 118 115 106
1.908038e-001 -4.004593e-001 -2.368804e+000 53 51 52
2.023823e-001 -4.006595e-001 -2.368210e+000 133 132 127
2.093035e-001 -4.008607e-001 -2.369910e+000 102 99 92
1.973039e-001 -4.055851e-001 -2.368818e+000 78 79 72
-4.653840e-002 -4.347197e-001 -2.326654e+000 116 111 108
6.664621e-002 -4.224225e-001 -2.351038e+000 100 90 92
1.897119e-001 -4.103828e-001 -2.368679e+000 80 81 76
2.270231e-001 -4.090061e-001 -2.373337e+000 102 102 92
2.477170e-001 -4.090973e-001 -2.378230e+000 67 64 59
2.072421e-001 -4.161448e-001 -2.371125e+000 82 83 78
1.612013e-001 -4.227122e-001 -2.360752e+000 135 135 136
1.161491e-001 -4.365127e-001 -2.358406e+000 104 104 102
1.697533e-001 -4.311854e-001 -2.366307e+000 142 142 141
1.211455e-001 -4.423585e-001 -2.363693e+000 100 99 97
2.498759e-001 -4.313182e-001 -2.381201e+000 112 113 113
2.593957e-001 -4.299054e-001 -2.388393e+000 117 122 126
2.249383e-001 -4.370229e-001 -2.367377e+000 88 87 86
2.647165e-001 -4.319121e-001 -2.391205e+000 88 92 95
2.408066e-001 -4.528826e-001 -2.373066e+000 85 88 81
-2.634223e-002 2.971647e-001 -2.144164e+000 90 86 82
3.305836e-001 -2.797005e-001 -2.361212e+000 80 83 76
-3.631482e-002 -3.709178e-001 -2.282959e+000 78 76 74
1.922825e-001 -3.903692e-001 -2.364859e+000 27 24 21
1.566817e-001 -4.405156e-001 -2.373396e+000 104 108 101
-5.768798e-003 2.336396e-001 -2.213321e+000 69 59 57
2.559570e-001 -1.588678e-001 -2.312460e+000 216 211 218
2.619959e-001 -1.966933e-001 -2.308574e+000 231 230 236
3.145877e-001 -2.259479e-001 -2.347637e+000 70 75 71
5.896711e-001 -2.018653e-001 -2.451764e+000 41 41 39
2.118659e-001 -2.968030e-001 -2.306737e+000 66 61 55
-1.803574e-001 -3.507865e-001 -2.226258e+000 58 52 52
2.018802e-001 -3.331855e-001 -2.345921e+000 50 45 41
6.835361e-003 -3.886377e-001 -2.307928e+000 109 104 100
-1.884287e-001 -4.116689e-001 -2.278106e+000 120 112 110
4.406200e-002 -4.270267e-001 -2.336318e+000 153 143 141
1.797633e-001 -4.161737e-001 -2.362047e+000 69 65 64
-7.145533e-002 -2.378771e-001 -2.254256e+000 252 253 247
-1.701451e-001 -3.689914e-001 -2.257952e+000 104 94 92
-1.913795e-001 -3.927838e-001 -2.257985e+000 63 57 62
2.333846e-002 2.718173e-001 -2.214340e+000 127 118 113
-1.737954e-001 -3.250844e-001 -2.220266e+000 91 90 88
-1.907478e-001 -3.555283e-001 -2.239446e+000 73 66 61
-1.545670e-001 1.041000e+000 -4.525604e+000 125 121 111
-4.329681e-001 1.001234e+000 -4.450095e+000 85 78 75
-2.549291e-001 1.030269e+000 -4.510758e+000 103 101 86
-1.291307e-001 1.032416e+000 -4.485999e+000 93 86 83
-3.402954e-001 9.999839e-001 -4.428439e+000 51 40 38
-1.950854e-001 1.036390e+000 -4.534469e+000 70 63 58
-2.766606e-001 9.898090e-001 -4.415463e+000 154 147 136
-3.751013e-001 9.862929e-001 -4.432989e+000 62 59 49
-2.537928e-001 9.935306e-001 -4.437672e+000 22 20 13
-1.370114e-001 1.009180e+000 -4.468656e+000 92 89 93
-4.064461e-001 9.772385e-001 -4.418688e+000 145 141 129
-2.766356e-001 9.865327e-001 -4.427785e+000 133 130 117
-1.287876e-001 1.004638e+000 -4.458017e+000 83 79 80
-9.579034e-002 1.014752e+000 -4.497872e+000 76 70 57
-3.757634e-001 9.719102e-001 -4.422332e+000 36 32 30
-2.168261e-001 9.964413e-001 -4.476588e+000 52 47 44
-3.856397e-001 9.577058e-001 -4.390023e+000 126 123 109
-2.242825e-001 9.820457e-001 -4.441687e+000 156 151 144
-3.715835e-001 9.460862e-001 -4.355252e+000 163 160 142
-2.619416e-001 9.661766e-001 -4.416452e+000 43 39 36
-2.047972e-001 9.696680e-001 -4.422699e+000 126 123 106
-3.528337e-001 9.298525e-001 -4.351555e+000 79 72 72
-2.451336e-001 9.404402e-001 -4.387634e+000 146 141 139
-2.743033e-001 9.383878e-001 -4.384651e+000 51 43 39
-1.983090e-001 9.469172e-001 -4.396529e+000 59 51 52
-1.869720e-001 9.335432e-001 -4.380548e+000 161 152 129
-2.316832e-001 9.150389e-001 -4.338344e+000 147 142 134
-2.269525e-001 8.951557e-001 -4.282635e+000 97 91 89
-1.282708e-001 9.031798e-001 -4.290890e+000 115 108 98
1.111222e-001 9.163494e-001 -4.277277e+000 80 75 66
-1.164588e-001 9.062341e-001 -4.315288e+000 110 101 95
-2.053928e-001 8.928848e-001 -4.303077e+000 108 101 89
-1.118917e-001 8.943213e-001 -4.289861e+000 70 61 52
-1.425154e-001 8.920145e-001 -4.321952e+000 33 27 29
-1.162998e-001 8.877673e-001 -4.284667e+000 92 85 72
1.043427e-001 8.983878e-001 -4.259957e+000 102 93 88
-1.832145e-001 8.756274e-001 -4.287792e+000 73 68 56
-1.314502e-001 8.781966e-001 -4.291267e+000 125 122 113
1.169626e-001 8.911000e-001 -4.251103e+000 79 70 63
1.053682e-001 8.805329e-001 -4.238497e+000 101 93 81
9.393268e-002 8.776990e-001 -4.248434e+000 22 13 9
-1.715907e-001 8.417855e-001 -4.228308e+000 25 15 8
-6.846106e-002 8.552443e-001 -4.262102e+000 163 156 150
-1.494282e-003 8.513339e-001 -4.232246e+000 74 64 60
1.055613e-001 8.662676e-001 -4.246049e+000 37 33 30
-7.396691e-002 8.453500e-001 -4.242031e+000 95 91 82
-4.339118e-002 8.355634e-001 -4.222758e+000 99 95 86
4.231373e-003 8.366442e-001 -4.225487e+000 58 51 48
-7.069305e-002 8.202809e-001 -4.210048e+000 170 165 162
-2.008864e-002 8.140175e-001 -4.185742e+000 68 65 60
-4.535632e-002 8.180898e-001 -4.226383e+000 62 58 55
1.832582e-002 8.197105e-001 -4.195430e+000 8 7 5
-9.105767e-002 8.011960e-001 -4.190913e+000 157 155 143
-5.931180e-002 8.048344e-001 -4.187891e+000 42 37 33
-4.755658e-002 8.057283e-001 -4.194820e+000 94 91 82
-3.705582e-002 8.035629e-001 -4.196065e+000 80 76 74
-6.107023e-002 7.942807e-001 -4.179745e+000 118 112 117
-1.340048e-002 7.954244e-001 -4.168369e+000 81 78 73
-7.880373e-002 7.909389e-001 -4.179539e+000 149 146 143
-4.589891e-002 7.925460e-001 -4.203933e+000 128 123 119
-1.476263e-002 7.729901e-001 -4.125828e+000 99 95 86
-7.037759e-002 7.609421e-001 -4.133918e+000 131 128 111
-5.097026e-002 7.548062e-001 -4.116014e+000 130 127 107
-2.947682e-002 7.625483e-001 -4.144423e+000 82 77 73
3.885427e-003 7.510666e-001 -4.119434e+000 101 97 93
-9.885970e-003 7.477963e-001 -4.113874e+000 24 20 17
1.141749e-002 7.451570e-001 -4.103951e+000 69 68 61
-1.741290e-002 7.410336e-001 -4.115336e+000 125 121 118
-3.742600e-004 7.357009e-001 -4.096685e+000 137 134 128
3.406188e-002 7.273801e-001 -4.082845e+000 87 82 79
-9.430694e-002 7.067685e-001 -4.064240e+000 119 102 89
2.752004e-002 7.089817e-001 -4.067223e+000 116 114 110
-2.130757e-002 3.570037e-001 -2.134051e+000 221 218 225
-2.333679e-002 3.546308e-001 -2.129989e+000 188 178 176
1.312154e-001 6.875092e-001 -4.037341e+000 64 61 56
3.290878e-002 6.779816e-001 -4.043752e+000 132 128 127
7.694601e-003 6.701445e-001 -4.025313e+000 156 153 147
-5.374347e-003 6.621459e-001 -4.001288e+000 122 113 107
5.077734e-002 6.688060e-001 -4.022906e+000 65 61 57
7.314969e-002 6.651845e-001 -4.006777e+000 55 54 47
4.235261e-002 6.603537e-001 -4.016440e+000 88 85 78
-1.106700e+000 4.608494e-001 -3.407870e+000 82 78 66
4.857850e-002 6.339839e-001 -3.942542e+000 57 53 50
1.988733e-001 6.536525e-001 -4.040626e+000 56 52 41
-1.322239e+000 4.133950e-001 -3.347809e+000 87 80 69
2.589638e-002 6.223572e-001 -3.958974e+000 54 49 46
2.178262e-001 6.443474e-001 -4.025378e+000 37 48 30
2.191877e-001 6.345155e-001 -4.012829e+000 146 148 134
-1.384653e+000 3.863568e-001 -3.319032e+000 60 50 42
2.048247e-001 6.237792e-001 -3.971207e+000 73 69 63
2.230075e-001 6.257856e-001 -3.997810e+000 144 143 124
-1.321397e+000 3.800683e-001 -3.305894e+000 57 46 35
-1.277816e+000 3.831027e-001 -3.303589e+000 89 81 68
3.629395e-001 6.390319e-001 -4.063812e+000 142 128 128
-1.346211e+000 3.776176e-001 -3.314800e+000 170 147 131
1.603335e-001 6.067634e-001 -3.992514e+000 127 124 117
-1.295002e+000 3.753097e-001 -3.308303e+000 154 145 128
2.231474e-001 5.964981e-001 -3.956039e+000 100 95 89
-1.347232e+000 3.642315e-001 -3.317367e+000 168 150 135
3.906961e-001 6.254593e-001 -4.065604e+000 21 14 17
-1.293937e+000 3.599304e-001 -3.297132e+000 141 133 114
4.000745e-001 6.229872e-001 -4.064669e+000 147 139 149
-1.354626e+000 3.563132e-001 -3.314409e+000 146 132 118
-1.313139e+000 3.562973e-001 -3.300667e+000 134 123 94
2.174183e-001 5.802158e-001 -3.929556e+000 91 86 82
-1.327627e+000 3.522349e-001 -3.304340e+000 230 213 182
-1.132195e+000 3.797565e-001 -3.385648e+000 86 78 66
2.051515e-002 2.980833e-001 -2.181057e+000 124 129 132
-1.268602e+000 3.098969e-001 -3.280038e+000 97 87 78
-1.270302e+000 2.533010e-001 -3.195880e+000 100 70 68
-1.041291e+000 7.652465e-002 -2.878153e+000 93 95 79
-1.022364e+000 5.684161e-002 -2.878574e+000 93 95 81
6.674376e-001 1.562431e-001 -3.410512e+000 60 61 54
-5.037633e-001 -2.314432e-001 -2.180441e+000 126 123 132
8.094516e-001 -1.382917e-001 -2.949719e+000 118 124 118
-4.498582e-001 -2.702025e-001 -2.175047e+000 243 240 253
7.138477e-001 -1.709419e-001 -2.891195e+000 64 63 60
7.102713e-001 -1.806680e-001 -2.872184e+000 104 106 101
7.304530e-001 -1.943080e-001 -2.835575e+000 108 113 107
7.993965e-001 -2.139928e-001 -2.816660e+000 118 121 117
8.509579e-001 -2.269622e-001 -2.772888e+000 123 136 107
7.552513e-001 -2.441782e-001 -2.773762e+000 120 126 122
8.282655e-001 -2.340700e-001 -2.775475e+000 154 165 135
8.408919e-001 -2.446111e-001 -2.755156e+000 103 111 75
8.532259e-001 -2.522547e-001 -2.739279e+000 88 88 74
7.078435e-002 -3.166781e-001 -2.334713e+000 115 117 114
5.171354e-002 -3.236219e-001 -2.329691e+000 121 130 126
-2.470693e-001 -3.659202e-001 -2.229836e+000 75 71 60
-1.923860e-001 -3.626743e-001 -2.240434e+000 108 105 100
6.669631e-002 -3.428034e-001 -2.331234e+000 128 134 134
-1.900581e-001 -3.792249e-001 -2.256186e+000 138 138 129
-1.232996e-001 -3.730158e-001 -2.257521e+000 120 118 119
1.022549e-001 -3.515908e-001 -2.349938e+000 73 75 70
-1.722092e-001 -3.934826e-001 -2.265916e+000 110 109 105
-3.117473e-002 -3.793290e-001 -2.307262e+000 108 110 108
7.342350e-001 -3.173407e-001 -2.633498e+000 47 49 46
7.290340e-001 -3.242736e-001 -2.644413e+000 33 37 36
1.245193e-001 -3.734065e-001 -2.355340e+000 135 138 135
2.825431e-001 -3.621599e-001 -2.377557e+000 105 104 98
1.838987e-002 -3.949003e-001 -2.309738e+000 78 79 74
1.460524e-001 -3.841576e-001 -2.360106e+000 70 72 67
1.626803e-001 -3.822675e-001 -2.368809e+000 75 77 74
1.936838e-001 -3.917106e-001 -2.366749e+000 65 65 63
6.927106e-001 -3.564640e-001 -2.555064e+000 62 64 59
2.086108e-001 -4.008431e-001 -2.370251e+000 90 89 88
1.598598e-001 -4.123297e-001 -2.358497e+000 63 65 64
1.911298e-001 -4.112724e-001 -2.365982e+000 82 82 78
1.707497e-001 -4.487695e-001 -2.377001e+000 67 67 65
2.622515e-001 -4.410709e-001 -2.390796e+000 50 48 49
6.107445e-001 -4.086050e-001 -2.455517e+000 80 82 77
-1.583908e-001 9.825111e-001 -4.442073e+000 134 131 123
-2.596758e-001 9.395639e-001 -4.381617e+000 147 144 140
-1.054151e-001 8.734668e-001 -4.273841e+000 45 41 38
-8.515409e-002 8.758267e-001 -4.282081e+000 128 123 127
9.546780e-003 7.003193e-001 -4.055405e+000 103 98 97
-1.333000e+000 3.722417e-001 -3.328672e+000 205 192 156
7.324657e-002 -4.128112e-001 -2.330315e+000 59 60 55
-1.705411e-001 9.529256e-001 -4.424279e+000 135 130 124
-1.095229e-001 8.841288e-001 -4.342111e+000 139 136 130
-6.065497e-002 8.035350e-001 -4.182733e+000 40 35 29
1.247049e-002 7.933076e-001 -4.138947e+000 134 130 127
2.209202e-002 7.250584e-001 -3.995824e+000 106 104 98
-1.315564e+000 4.319491e-001 -3.307481e+000 132 121 109
-9.131946e-002 -2.197951e-001 -2.248944e+000 177 179 183
1.935424e-002 -3.953958e-001 -2.318173e+000 88 89 84
3.165757e-002 -4.021202e-001 -2.322739e+000 58 58 58
1.847278e-001 -3.875421e-001 -2.372166e+000 33 33 34
2.145584e-001 -3.948993e-001 -2.357905e+000 38 38 38
-1.364481e-001 8.663131e-001 -4.219166e+000 136 133 125
-9.224364e-002 7.690447e-001 -4.151589e+000 183 180 174
-1.953979e-001 -3.956543e-001 -2.266064e+000 51 47 47
1.754645e-001 -4.209117e-001 -2.366768e+000 147 152 146
5.827066e-002 -2.663707e-001 -2.323294e+000 36 37 39
2.206707e-001 -3.969360e-001 -2.361673e+000 66 65 63
2.315995e-001 -4.023109e-001 -2.381908e+000 67 66 64
-1.984593e-001 -3.657232e-001 -2.250378e+000 98 95 90
-7.991976e-004 8.739860e-002 -2.410381e+000 53 62 59
4.408765e-002 6.847104e-002 -2.408426e+000 140 149 148
4.720175e-002 3.616856e-002 -2.410544e+000 97 106 103
1.465887e-001 -2.331515e-002 -2.417285e+000 73 79 77
1.208053e-001 -3.762372e-002 -2.420240e+000 110 118 117
-4.033202e-001 -2.413086e-001 -2.217245e+000 74 76 71
-4.001778e-001 -2.398260e-001 -2.219115e+000 85 88 85
1.848674e-002 -4.908415e-001 -2.304690e+000 89 86 68
-4.043290e-002 -4.120425e-001 -2.304568e+000 113 113 105
3.410223e-001 -1.102872e-002 -2.461028e+000 28 27 24
1.061471e-001 -3.477972e-001 -2.350487e+000 81 81 79
3.049081e-002 3.506680e-001 -2.191653e+000 165 163 165
-1.043499e-002 2.354581e-001 -2.221201e+000 85 84 82
4.311244e-002 2.194797e-001 -2.249097e+000 161 161 163
-4.610960e-001 -1.359244e-001 -2.176818e+000 223 220 198
-4.739403e-001 -1.488010e-001 -2.173089e+000 225 218 212
-4.793595e-001 -1.533806e-001 -2.165932e+000 239 235 235
6.417422e-002 -3.028807e-001 -2.340964e+000 77 75 76
8.018724e-002 -3.309334e-001 -2.340616e+000 107 109 108
1.602266e-001 -4.261076e-001 -2.364733e+000 94 98 102
-1.905175e-001 -3.496723e-001 -2.232195e+000 134 131 124
-1.738692e-001 -3.697787e-001 -2.256652e+000 83 81 81
6.799541e-002 -3.174491e-001 -2.340642e+000 128 131 130
1.231385e-002 1.694658e-001 -2.238560e+000 116 109 107
-1.156372e-001 -3.857976e-001 -2.273686e+000 57 56 55
1.578917e-002 1.691809e-002 3.903897e-002 0 255 0
1.542771e-002 1.659004e-002 -1.095865e-002 255 255 0
6.285146e-001 -6.711520e-001 -5.366975e-001 255 0 0
6.144707e-001 -6.540824e-001 -5.815462e-001 255 255 0
5.549673e-001 3.118988e-002 3.105238e-002 0 255 0
5.449934e-001 3.014473e-002 -1.793159e-002 255 255 0
-5.291664e-001 6.172673e-002 1.219497e-002 255 0 0
-5.193754e-001 6.087328e-002 -3.682959e-002 255 255 0
9.394801e-001 8.774246e-002 -1.072332e-001 0 255 0
9.216064e-001 8.631594e-002 -1.539076e-001 255 255 0
1.041900e+000 -6.487604e-001 -7.839503e-001 255 0 0
1.017266e+000 -6.323157e-001 -8.242339e-001 255 255 0
