ply
format ascii 1.0
element face 0
property list uchar int vertex_indices
element vertex 862
property float x
property float y
property float z
property uchar diffuse_red
property uchar diffuse_green
property uchar diffuse_blue
end_header
-3.897151e-001 -2.804828e-001 -2.198748e+000 144 145 141
-1.774555e-001 -3.255900e-001 -2.220718e+000 70 73 72
-1.883994e-001 -3.486082e-001 -2.225966e+000 70 70 68
-5.716328e-002 -3.644789e-001 -2.275612e+000 68 73 69
-1.810727e-001 -3.610250e-001 -2.243956e+000 135 136 131
1.862664e-001 -3.836268e-001 -2.360846e+000 17 18 19
-1.808046e-001 -3.809360e-001 -2.255819e+000 64 65 59
7.041680e-001 -4.208502e-001 -2.418973e+000 58 56 46
-5.192348e-001 -2.484519e-001 -2.207044e+000 186 186 196
-3.944394e-001 -2.747381e-001 -2.198426e+000 137 138 127
5.193653e-001 -3.105811e-001 -2.366686e+000 81 91 82
-1.412135e-001 -3.817443e-001 -2.262879e+000 61 60 58
2.142304e-001 -4.013273e-001 -2.365965e+000 26 26 24
6.992639e-001 -4.206126e-001 -2.407543e+000 57 62 49
8.907493e-002 -4.143316e-001 -2.320786e+000 39 40 39
-3.926429e-001 -2.692962e-001 -2.199783e+000 115 120 115
-1.781756e-001 -3.704980e-001 -2.255135e+000 68 67 63
-4.966838e-001 -1.685355e-001 -2.168437e+000 141 138 132
-4.318072e-001 -2.675446e-001 -2.224561e+000 254 254 255
4.952254e-002 3.607831e-001 -2.235809e+000 121 121 121
6.607584e-002 3.200600e-001 -2.248654e+000 138 139 141
2.379838e-003 2.490529e-001 -2.218178e+000 138 135 134
5.529054e-003 2.505836e-001 -2.221258e+000 99 92 93
-1.065574e-002 2.337999e-001 -2.224995e+000 125 124 130
-2.722425e-001 -1.688154e-001 -2.154880e+000 116 120 123
2.012634e-001 -1.364341e-001 -2.273889e+000 210 205 209
2.514179e-001 -1.257635e-001 -2.316955e+000 99 101 98
2.043117e-001 -1.419720e-001 -2.276141e+000 193 187 189
-1.406155e-001 -1.763614e-001 -2.216004e+000 114 117 118
1.189559e-001 -1.551347e-001 -2.253954e+000 120 125 127
2.421729e-001 -1.442018e-001 -2.299839e+000 196 193 201
1.869838e-001 -1.598895e-001 -2.258630e+000 157 161 162
1.616984e-001 -1.646219e-001 -2.255572e+000 125 126 131
2.041739e-001 -1.615323e-001 -2.269167e+000 255 249 254
2.062698e-001 -1.643602e-001 -2.269976e+000 175 165 174
1.948685e-001 -1.731757e-001 -2.260611e+000 133 136 140
2.000046e-001 -1.723724e-001 -2.268178e+000 145 145 151
2.614624e-001 -1.581223e-001 -2.315120e+000 131 132 136
2.168982e-001 -1.726065e-001 -2.275530e+000 216 212 217
2.452300e-001 -1.749752e-001 -2.293438e+000 180 178 180
2.393414e-001 -1.807083e-001 -2.288454e+000 166 167 166
2.584474e-001 -1.761182e-001 -2.308902e+000 180 186 186
5.774777e-001 -1.421382e-001 -2.392945e+000 59 60 57
2.494411e-001 -1.872980e-001 -2.297019e+000 129 128 133
2.544128e-001 -1.872667e-001 -2.300310e+000 196 199 204
-1.202574e-001 -2.364155e-001 -2.221579e+000 129 132 136
5.986551e-001 -1.542260e-001 -2.409605e+000 82 84 83
2.731480e-001 -1.918787e-001 -2.328469e+000 166 170 171
5.693041e-001 -1.620947e-001 -2.406635e+000 97 99 94
2.591298e-001 -2.051942e-001 -2.307217e+000 122 125 125
-1.238960e-001 -2.498917e-001 -2.222313e+000 125 129 138
3.058333e-001 -2.055829e-001 -2.344520e+000 127 132 135
2.997792e-001 -2.104510e-001 -2.339756e+000 104 110 107
6.212107e-001 -1.778577e-001 -2.432348e+000 72 72 72
2.882911e-001 -2.256095e-001 -2.330953e+000 91 95 94
5.950572e-001 -1.865875e-001 -2.432774e+000 96 97 98
3.153969e-001 -2.244938e-001 -2.347415e+000 66 71 67
-6.215358e-002 -2.724776e-001 -2.260312e+000 190 188 196
2.473150e-001 -2.508221e-001 -2.304373e+000 137 136 136
2.314473e-001 -2.582017e-001 -2.292808e+000 131 127 126
6.623562e-001 -1.967231e-001 -2.454608e+000 68 70 66
2.119082e-001 -2.823703e-001 -2.303446e+000 113 103 101
3.204732e-001 -2.659698e-001 -2.352766e+000 107 109 103
-1.754420e-001 -3.250016e-001 -2.220925e+000 65 64 69
5.555348e-001 -2.337455e-001 -2.459569e+000 65 63 59
-1.771773e-001 -3.302783e-001 -2.220163e+000 73 72 73
1.762361e-001 -2.936548e-001 -2.306817e+000 108 101 95
-4.359911e-001 -3.555860e-001 -2.212105e+000 127 110 103
2.120353e-001 -2.941190e-001 -2.311475e+000 73 68 62
6.618313e-001 -2.345119e-001 -2.479839e+000 50 52 49
2.269547e-001 -2.959453e-001 -2.315874e+000 65 58 48
-2.425674e-001 -3.487928e-001 -2.217953e+000 66 55 54
2.465923e-001 -3.073736e-001 -2.326200e+000 89 81 78
3.361263e-001 -2.945736e-001 -2.360906e+000 100 102 99
2.389110e-001 -3.072738e-001 -2.330660e+000 87 82 76
2.534533e-001 -3.067036e-001 -2.330013e+000 62 58 47
-2.085044e-001 -3.574581e-001 -2.234957e+000 91 84 74
6.891323e-001 -2.532468e-001 -2.494607e+000 71 70 68
1.635188e-001 -3.194587e-001 -2.336884e+000 115 112 104
2.551022e-001 -3.143275e-001 -2.337190e+000 140 137 125
6.161493e-001 -2.626813e-001 -2.490911e+000 91 90 88
2.482518e-001 -3.174392e-001 -2.335616e+000 95 92 81
2.784485e-001 -3.136880e-001 -2.345938e+000 132 131 123
-2.059231e-001 -3.681331e-001 -2.236207e+000 71 67 60
2.601507e-001 -3.186141e-001 -2.339575e+000 87 85 72
-2.102192e-001 -3.735589e-001 -2.243623e+000 96 92 83
-2.051018e-001 -3.763330e-001 -2.246184e+000 79 75 69
-1.815442e-001 -3.734156e-001 -2.249816e+000 128 120 118
-1.979638e-001 -3.784529e-001 -2.245130e+000 143 141 124
2.578208e-001 -3.284505e-001 -2.351308e+000 123 121 108
2.522407e-001 -3.313688e-001 -2.351205e+000 79 73 64
-1.273761e-001 -3.754490e-001 -2.259309e+000 106 102 100
1.928045e-002 -3.572142e-001 -2.300279e+000 120 120 121
1.813884e-001 -3.409518e-001 -2.351992e+000 87 86 83
1.065083e-001 -3.499088e-001 -2.350695e+000 122 120 121
2.208453e-001 -3.421054e-001 -2.356397e+000 121 116 110
-2.562635e-001 -3.998091e-001 -2.252988e+000 61 52 48
1.683273e-001 -3.533149e-001 -2.341215e+000 122 119 115
2.005238e-001 -3.499711e-001 -2.353714e+000 121 120 116
-2.124938e-002 -3.795184e-001 -2.290255e+000 87 82 78
-1.758852e-001 -3.959925e-001 -2.265782e+000 97 92 88
-2.712564e-001 -4.080488e-001 -2.255751e+000 115 106 91
2.329646e-001 -3.666653e-001 -2.350702e+000 133 133 130
-1.931907e-001 -4.161279e-001 -2.276178e+000 112 103 104
1.770192e-002 -3.968494e-001 -2.307944e+000 77 78 75
-1.951049e-001 -4.252630e-001 -2.292121e+000 121 115 112
1.814362e-001 -3.916536e-001 -2.367885e+000 131 131 127
2.344389e-001 -3.895625e-001 -2.355776e+000 133 125 123
2.381938e-001 -3.947006e-001 -2.360951e+000 118 115 106
1.917211e-001 -4.019801e-001 -2.368905e+000 53 51 52
2.034242e-001 -4.021541e-001 -2.368250e+000 133 132 127
2.104291e-001 -4.023442e-001 -2.369950e+000 102 99 92
1.983122e-001 -4.071630e-001 -2.368880e+000 78 79 72
-4.829906e-002 -4.374048e-001 -2.327295e+000 116 111 108
6.619497e-002 -4.245646e-001 -2.351480e+000 100 90 92
1.906533e-001 -4.120468e-001 -2.368767e+000 80 81 76
2.283930e-001 -4.105712e-001 -2.373346e+000 102 102 92
2.493605e-001 -4.106353e-001 -2.378189e+000 67 64 59
2.084068e-001 -4.178531e-001 -2.371176e+000 82 83 78
1.618064e-001 -4.245990e-001 -2.360907e+000 135 135 136
1.163074e-001 -4.387226e-001 -2.358694e+000 104 104 102
1.705277e-001 -4.331915e-001 -2.366448e+000 142 142 141
1.214143e-001 -4.446546e-001 -2.363999e+000 100 99 97
2.516438e-001 -4.331825e-001 -2.381190e+000 112 113 113
2.613269e-001 -4.317539e-001 -2.388399e+000 117 122 126
2.263262e-001 -4.389773e-001 -2.367370e+000 88 87 86
2.667471e-001 -4.337927e-001 -2.391191e+000 88 92 95
2.424905e-001 -4.550664e-001 -2.373008e+000 85 88 81
-3.193250e-002 3.039250e-001 -2.145492e+000 90 86 82
3.325547e-001 -2.793103e-001 -2.360763e+000 80 83 76
-3.862834e-002 -3.725064e-001 -2.283691e+000 78 76 74
1.929497e-001 -3.916061e-001 -2.365824e+000 27 24 21
1.573996e-001 -4.427139e-001 -2.373641e+000 104 108 101
-9.953811e-003 2.389971e-001 -2.214740e+000 69 59 57
2.561475e-001 -1.569723e-001 -2.312898e+000 216 211 218
2.624232e-001 -1.953020e-001 -2.308571e+000 231 230 236
3.160920e-001 -2.249349e-001 -2.347149e+000 70 75 71
5.958128e-001 -2.006918e-001 -2.450526e+000 41 41 39
2.121755e-001 -2.967435e-001 -2.306397e+000 66 61 55
-1.845832e-001 -3.526612e-001 -2.226932e+000 58 52 52
2.025264e-001 -3.337255e-001 -2.345824e+000 50 45 41
7.106426e-003 -3.911145e-001 -2.305235e+000 109 104 100
-1.920224e-001 -4.145998e-001 -2.278736e+000 120 112 110
4.329169e-002 -4.292782e-001 -2.336694e+000 153 143 141
1.805617e-001 -4.179239e-001 -2.362129e+000 69 65 64
-7.477076e-002 -2.383751e-001 -2.257088e+000 252 253 247
-1.738010e-001 -3.711854e-001 -2.258519e+000 104 94 92
-1.951890e-001 -3.954258e-001 -2.258490e+000 63 57 62
2.096478e-002 2.756985e-001 -2.212463e+000 127 118 113
-1.780093e-001 -3.265916e-001 -2.220883e+000 91 90 88
-1.950219e-001 -3.575344e-001 -2.240261e+000 73 66 61
-1.471404e-001 1.036941e+000 -4.506648e+000 125 121 111
-4.252606e-001 9.956283e-001 -4.433878e+000 85 78 75
-2.489133e-001 1.026756e+000 -4.500618e+000 103 101 86
-1.252353e-001 1.032146e+000 -4.486565e+000 93 86 83
-3.331195e-001 9.951276e-001 -4.413043e+000 51 40 38
-1.879116e-001 1.031831e+000 -4.518341e+000 70 63 58
-2.697741e-001 9.854532e-001 -4.400576e+000 154 147 136
-3.676610e-001 9.811119e-001 -4.417075e+000 62 59 49
-2.468403e-001 9.891538e-001 -4.422467e+000 22 20 13
-1.304086e-001 1.005592e+000 -4.454380e+000 92 89 93
-3.989662e-001 9.719779e-001 -4.402933e+000 145 141 129
-2.696269e-001 9.820446e-001 -4.412518e+000 133 130 117
-1.222672e-001 1.001196e+000 -4.444026e+000 83 79 80
-8.918657e-002 1.011326e+000 -4.483652e+000 76 70 57
-3.683197e-001 9.667621e-001 -4.406434e+000 36 32 30
-2.097453e-001 9.920081e-001 -4.460810e+000 52 47 44
-3.783612e-001 9.527440e-001 -4.374710e+000 126 123 109
-2.196947e-001 9.800904e-001 -4.438019e+000 156 151 144
-3.645955e-001 9.414781e-001 -4.340682e+000 163 160 142
-2.549555e-001 9.617943e-001 -4.401184e+000 43 39 36
-1.980170e-001 9.656790e-001 -4.407858e+000 126 123 106
-3.458311e-001 9.253129e-001 -4.336833e+000 79 72 72
-2.394929e-001 9.384008e-001 -4.375680e+000 146 141 139
-2.673516e-001 9.340725e-001 -4.369558e+000 51 43 39
-1.916159e-001 9.430912e-001 -4.381936e+000 59 51 52
-1.803620e-001 9.298745e-001 -4.366179e+000 161 152 129
-2.251211e-001 9.113191e-001 -4.324274e+000 147 142 134
-2.207268e-001 8.918574e-001 -4.269595e+000 97 91 89
-1.223427e-001 9.005845e-001 -4.278678e+000 115 108 98
1.163167e-001 9.163221e-001 -4.269946e+000 80 75 66
-1.104180e-001 9.035486e-001 -4.302726e+000 110 101 95
-1.990639e-001 8.895480e-001 -4.289645e+000 108 101 89
-1.065204e-001 8.923570e-001 -4.280685e+000 70 61 52
-1.362635e-001 8.889881e-001 -4.308665e+000 33 27 29
-1.103713e-001 8.852377e-001 -4.272448e+000 92 85 72
1.095347e-001 8.982662e-001 -4.252362e+000 102 93 88
-1.769796e-001 8.724994e-001 -4.274605e+000 73 68 56
-1.282152e-001 8.778902e-001 -4.291498e+000 125 122 113
1.221230e-001 8.911324e-001 -4.243816e+000 79 70 63
1.105255e-001 8.804436e-001 -4.230914e+000 101 93 81
9.916452e-002 8.773908e-001 -4.240373e+000 22 13 9
-1.669197e-001 8.404161e-001 -4.222088e+000 25 15 8
-6.266773e-002 8.531251e-001 -4.250406e+000 163 156 150
3.949028e-003 8.500209e-001 -4.222134e+000 74 64 60
1.108137e-001 8.660136e-001 -4.238028e+000 37 33 30
-6.823331e-002 8.432868e-001 -4.230487e+000 95 91 82
-3.864624e-002 8.345267e-001 -4.216983e+000 99 95 86
9.694754e-003 8.353416e-001 -4.215287e+000 58 51 48
-6.504785e-002 8.183623e-001 -4.198754e+000 170 165 162
-1.470502e-002 8.126795e-001 -4.175579e+000 68 65 60
-3.982561e-002 8.160790e-001 -4.216452e+000 62 58 55
2.366624e-002 8.186572e-001 -4.185701e+000 8 7 5
-8.538936e-002 7.991766e-001 -4.179471e+000 157 155 143
-5.376648e-002 8.031019e-001 -4.176948e+000 42 37 33
-4.200192e-002 8.040423e-001 -4.183896e+000 94 91 82
-3.150619e-002 8.019388e-001 -4.185193e+000 80 76 74
-5.648652e-002 7.935174e-001 -4.174150e+000 118 112 117
-8.043849e-003 7.941661e-001 -4.158275e+000 81 78 73
-7.313909e-002 7.886959e-001 -4.168437e+000 149 146 143
-3.893786e-002 7.896071e-001 -4.184938e+000 128 123 119
-9.555094e-003 7.719147e-001 -4.116164e+000 99 95 86
-6.493858e-002 7.593209e-001 -4.123222e+000 131 128 111
-4.566356e-002 7.534333e-001 -4.105807e+000 130 127 107
-2.407984e-002 7.611742e-001 -4.134040e+000 82 77 73
9.113779e-003 7.500813e-001 -4.109791e+000 101 97 93
-4.643722e-003 7.467199e-001 -4.104071e+000 24 20 17
1.656035e-002 7.443188e-001 -4.094654e+000 69 68 61
-1.212004e-002 7.398607e-001 -4.105321e+000 125 121 118
4.799957e-003 7.347639e-001 -4.087148e+000 137 134 128
3.912938e-002 7.267770e-001 -4.073927e+000 87 82 79
-8.901457e-002 7.052587e-001 -4.053924e+000 119 102 89
3.258746e-002 7.083441e-001 -4.058206e+000 116 114 110
-2.667526e-002 3.643408e-001 -2.135207e+000 221 218 225
-2.944106e-002 3.619072e-001 -2.132956e+000 188 178 176
1.360926e-001 6.878257e-001 -4.030170e+000 64 61 56
3.796312e-002 6.774047e-001 -4.034772e+000 132 128 127
1.271655e-002 6.694647e-001 -4.016232e+000 156 153 147
-4.433040e-004 6.614975e-001 -3.992409e+000 122 113 107
5.573709e-002 6.684526e-001 -4.014351e+000 65 61 57
7.800192e-002 6.650994e-001 -3.998824e+000 55 54 47
4.731386e-002 6.599479e-001 -4.007811e+000 88 85 78
-1.113401e+000 4.604464e-001 -3.418283e+000 82 78 66
5.323036e-002 6.339720e-001 -3.934905e+000 57 53 50
2.038664e-001 6.543750e-001 -4.034202e+000 56 52 41
-1.316946e+000 4.101764e-001 -3.333584e+000 87 80 69
3.070750e-002 6.220382e-001 -3.950643e+000 54 49 46
2.220015e-001 6.465952e-001 -4.025359e+000 37 48 30
2.241290e-001 6.354834e-001 -4.006959e+000 146 148 134
-1.401347e+000 3.864098e-001 -3.339918e+000 60 50 42
2.096123e-001 6.248037e-001 -3.965499e+000 73 69 63
2.279208e-001 6.268213e-001 -3.992061e+000 144 143 124
-1.334041e+000 3.795982e-001 -3.321298e+000 57 46 35
-1.289462e+000 3.826738e-001 -3.318133e+000 89 81 68
3.682685e-001 6.412066e-001 -4.061364e+000 142 128 128
-1.359362e+000 3.770852e-001 -3.330759e+000 170 147 131
1.652660e-001 6.072070e-001 -3.985397e+000 127 124 117
-1.306946e+000 3.747818e-001 -3.323179e+000 154 145 128
2.279623e-001 5.976310e-001 -3.950567e+000 100 95 89
-1.360282e+000 3.635495e-001 -3.333308e+000 168 150 135
3.961589e-001 6.278193e-001 -4.063701e+000 21 14 17
-1.305966e+000 3.593149e-001 -3.312012e+000 141 133 114
4.055712e-001 6.254420e-001 -4.063073e+000 147 139 149
-1.367855e+000 3.555639e-001 -3.330471e+000 146 132 118
-1.325553e+000 3.556240e-001 -3.315910e+000 134 123 94
2.221719e-001 5.813587e-001 -3.924077e+000 91 86 82
-1.340296e+000 3.514969e-001 -3.319830e+000 230 213 182
-1.139235e+000 3.788575e-001 -3.396517e+000 86 78 66
1.633527e-002 3.041857e-001 -2.181426e+000 124 129 132
-1.280042e+000 3.089038e-001 -3.294384e+000 97 87 78
-1.282902e+000 2.521485e-001 -3.210394e+000 100 70 68
-1.052828e+000 7.520400e-002 -2.888692e+000 93 95 79
-1.033420e+000 5.538157e-002 -2.888820e+000 93 95 81
6.744802e-001 1.600756e-001 -3.416556e+000 60 61 54
-5.126822e-001 -2.331636e-001 -2.181581e+000 126 123 132
8.192192e-001 -1.362898e-001 -2.958173e+000 118 124 118
-4.579325e-001 -2.721763e-001 -2.175858e+000 243 240 253
7.218048e-001 -1.692688e-001 -2.896795e+000 64 63 60
7.181773e-001 -1.794927e-001 -2.884039e+000 104 106 101
7.388131e-001 -1.935624e-001 -2.850735e+000 108 113 107
8.091549e-001 -2.128804e-001 -2.823949e+000 118 121 117
8.621419e-001 -2.263977e-001 -2.785268e+000 123 136 107
7.641799e-001 -2.433919e-001 -2.779721e+000 120 126 122
8.390390e-001 -2.340517e-001 -2.786094e+000 154 165 135
8.518242e-001 -2.441976e-001 -2.765268e+000 103 111 75
8.646186e-001 -2.522332e-001 -2.751207e+000 88 88 74
6.981019e-002 -3.172602e-001 -2.335437e+000 115 117 114
5.057375e-002 -3.243665e-001 -2.330353e+000 121 130 126
-2.516700e-001 -3.681039e-001 -2.229786e+000 75 71 60
-1.965943e-001 -3.647965e-001 -2.241129e+000 108 105 100
6.576992e-002 -3.437404e-001 -2.331826e+000 128 134 134
-1.941329e-001 -3.815657e-001 -2.257051e+000 138 138 129
-1.264620e-001 -3.748706e-001 -2.257768e+000 120 118 119
1.017884e-001 -3.525485e-001 -2.350656e+000 73 75 70
-1.759889e-001 -3.959244e-001 -2.266915e+000 110 109 105
-3.310450e-002 -3.809522e-001 -2.307786e+000 108 110 108
7.429618e-001 -3.175250e-001 -2.638180e+000 47 49 46
7.375599e-001 -3.223636e-001 -2.632324e+000 33 37 36
1.244242e-001 -3.745120e-001 -2.355852e+000 135 138 135
2.841882e-001 -3.628415e-001 -2.378128e+000 105 104 98
1.723220e-002 -3.964415e-001 -2.309460e+000 78 79 74
1.461789e-001 -3.854275e-001 -2.360749e+000 70 72 67
1.630898e-001 -3.833844e-001 -2.369265e+000 75 77 74
1.943690e-001 -3.929607e-001 -2.367339e+000 65 65 63
7.009376e-001 -3.577620e-001 -2.558594e+000 62 64 59
2.095834e-001 -4.021165e-001 -2.370648e+000 90 89 88
1.602945e-001 -4.138515e-001 -2.358884e+000 63 65 64
1.919348e-001 -4.127139e-001 -2.366354e+000 82 82 78
1.712997e-001 -4.505202e-001 -2.377257e+000 67 67 65
2.640087e-001 -4.428028e-001 -2.391672e+000 50 48 49
6.173612e-001 -4.101325e-001 -2.458574e+000 80 82 77
-1.517307e-001 9.788019e-001 -4.427543e+000 134 131 123
-2.528120e-001 9.353807e-001 -4.366717e+000 147 144 140
-9.952995e-002 8.710493e-001 -4.261789e+000 45 41 38
-7.927984e-002 8.735129e-001 -4.270091e+000 128 123 127
1.461536e-002 6.995799e-001 -4.046220e+000 103 98 97
-1.345512e+000 3.715740e-001 -3.344250e+000 205 192 156
7.254745e-002 -4.146455e-001 -2.331148e+000 59 60 55
-1.646303e-001 9.503733e-001 -4.413273e+000 135 130 124
-9.681341e-002 8.746409e-001 -4.293423e+000 139 136 130
-5.513415e-002 8.018256e-001 -4.171867e+000 40 35 29
1.760810e-002 7.924761e-001 -4.129785e+000 134 130 127
2.667002e-002 7.249603e-001 -3.988409e+000 106 104 98
-1.321168e+000 4.308146e-001 -3.310770e+000 132 121 109
-9.475303e-002 -2.197972e-001 -2.249843e+000 177 179 183
1.794921e-002 -3.971479e-001 -2.318877e+000 88 89 84
2.978587e-002 -4.049132e-001 -2.326355e+000 58 58 58
1.853223e-001 -3.887721e-001 -2.372844e+000 33 33 34
2.155233e-001 -3.960950e-001 -2.358240e+000 38 38 38
-1.308042e-001 8.640532e-001 -4.207819e+000 136 133 125
-8.667853e-002 7.671734e-001 -4.140459e+000 183 180 174
-1.991624e-001 -3.980109e-001 -2.266256e+000 51 47 47
1.760589e-001 -4.225759e-001 -2.367672e+000 147 152 146
5.698855e-002 -2.663864e-001 -2.323988e+000 36 37 39
2.227222e-001 -3.976715e-001 -2.357557e+000 66 65 63
2.328047e-001 -4.036033e-001 -2.382846e+000 67 66 64
-2.024520e-001 -3.677356e-001 -2.250597e+000 98 95 90
-3.713295e-003 9.067185e-002 -2.413389e+000 53 62 59
4.167344e-002 7.170801e-002 -2.411216e+000 140 149 148
4.492616e-002 3.909405e-002 -2.413276e+000 97 106 103
1.455171e-001 -2.066938e-002 -2.419615e+000 73 79 77
1.195253e-001 -3.520538e-002 -2.422651e+000 110 118 117
-4.106041e-001 -2.426783e-001 -2.218445e+000 74 76 71
-4.074122e-001 -2.411650e-001 -2.220340e+000 85 88 85
1.730970e-002 -4.938902e-001 -2.304966e+000 89 86 68
-4.253811e-002 -4.141875e-001 -2.305318e+000 113 113 105
3.421026e-001 -7.744613e-003 -2.463313e+000 28 27 24
1.056613e-001 -3.488204e-001 -2.351837e+000 81 81 79
2.644920e-002 3.575031e-001 -2.192156e+000 165 163 165
-1.449276e-002 2.407203e-001 -2.222257e+000 85 84 82
3.985666e-002 2.246277e-001 -2.250064e+000 161 161 163
-4.701629e-001 -1.361810e-001 -2.178842e+000 223 220 198
-4.832193e-001 -1.492778e-001 -2.175066e+000 225 218 212
-4.887774e-001 -1.539386e-001 -2.167809e+000 239 235 235
6.306452e-002 -3.032957e-001 -2.341903e+000 77 75 76
7.931841e-002 -3.316515e-001 -2.341447e+000 107 109 108
1.601498e-001 -4.278426e-001 -2.366522e+000 94 98 102
-1.944418e-001 -3.516933e-001 -2.232476e+000 134 131 124
-1.769451e-001 -3.721746e-001 -2.255607e+000 83 81 81
6.695940e-002 -3.180327e-001 -2.341549e+000 128 131 130
8.809489e-003 1.740198e-001 -2.239562e+000 116 109 107
-1.194700e-001 -3.877046e-001 -2.272523e+000 57 56 55
4.247240e-001 -1.335758e-001 -2.236557e+000 129 130 137
4.207273e-001 -1.412850e-001 -2.240265e+000 170 177 190
2.221503e-001 -1.517349e-001 -2.281902e+000 173 171 187
4.266757e-001 -1.466970e-001 -2.238934e+000 190 193 198
2.062435e-001 -1.558203e-001 -2.278939e+000 238 233 239
2.162804e-001 -1.629841e-001 -2.275271e+000 170 166 172
-4.370640e-001 -2.581926e-001 -2.200882e+000 150 151 143
1.936690e-001 -3.908700e-001 -2.363535e+000 40 42 36
1.924987e-001 -4.009947e-001 -2.369872e+000 33 35 31
2.030262e-001 -1.591956e-001 -2.285974e+000 247 243 239
2.054072e-001 -1.610768e-001 -2.279755e+000 255 251 255
2.107017e-001 -1.762108e-001 -2.286383e+000 158 157 163
-4.574030e-001 -2.602672e-001 -2.183897e+000 143 142 149
-4.801244e-003 3.600571e-001 -2.151491e+000 234 231 236
4.896202e-001 1.803998e-001 -2.380577e+000 125 130 134
4.997851e-001 1.761465e-001 -2.381197e+000 110 113 118
4.461211e-001 1.092138e-001 -2.385268e+000 134 137 145
-3.041175e-002 3.070399e-001 -2.140816e+000 85 80 75
-3.734937e-002 3.753622e-001 -2.133446e+000 196 184 202
-5.066426e-002 3.725478e-001 -2.125004e+000 250 248 252
-4.520349e-002 3.726655e-001 -2.127879e+000 188 183 199
-2.511223e-002 3.775665e-001 -2.144203e+000 157 147 164
-2.418691e-002 3.728175e-001 -2.139295e+000 233 227 240
-5.304542e-002 3.661967e-001 -2.126951e+000 159 148 169
-3.602024e-002 3.650635e-001 -2.135303e+000 213 202 202
-1.719609e-002 3.680109e-001 -2.139016e+000 222 214 212
-5.291630e-002 3.544197e-001 -2.126446e+000 244 238 245
-1.149942e-002 3.606945e-001 -2.144371e+000 189 184 194
-6.252230e-002 3.434540e-001 -2.119572e+000 197 196 200
5.736107e-001 2.266764e-002 -2.396044e+000 101 111 113
-2.241411e-001 -1.329847e-001 -2.168094e+000 132 138 140
3.175248e-001 -2.931052e-001 -2.355800e+000 130 131 123
2.895701e-001 -3.144622e-001 -2.350693e+000 164 166 154
-2.128976e-002 -3.789120e-001 -2.290401e+000 107 107 108
1.749773e-001 -4.111390e-001 -2.367452e+000 132 134 133
6.817769e-002 -4.735824e-001 -2.334359e+000 86 90 83
5.967413e-001 -2.011044e-001 -2.446511e+000 44 45 45
-1.070091e-001 1.202415e+000 -4.712453e+000 60 51 49
-2.174304e-001 1.176394e+000 -4.686349e+000 32 32 23
-7.716604e-001 1.022185e+000 -4.385436e+000 46 35 28
-7.477312e-001 1.031165e+000 -4.425643e+000 38 28 28
-6.456995e-001 1.034240e+000 -4.387153e+000 127 117 114
-8.950795e-002 1.194404e+000 -4.716183e+000 37 29 31
-7.543026e-001 1.013177e+000 -4.369660e+000 86 77 68
-6.840634e-001 1.019498e+000 -4.367517e+000 81 73 68
-7.112482e-001 1.012834e+000 -4.370114e+000 120 111 98
-6.753202e-001 1.023630e+000 -4.400580e+000 46 38 35
-2.044778e-001 1.154487e+000 -4.656260e+000 107 108 102
-6.787538e-001 1.015372e+000 -4.378540e+000 117 109 105
-5.638523e-001 1.043988e+000 -4.440321e+000 161 153 137
-5.828976e-001 1.029632e+000 -4.391358e+000 148 135 127
-2.186733e-001 1.147277e+000 -4.657652e+000 121 120 116
-1.657484e-001 1.148498e+000 -4.638593e+000 66 61 55
-7.226550e-001 9.973884e-001 -4.351775e+000 39 32 24
-6.668535e-001 1.011230e+000 -4.374437e+000 135 128 119
-2.848083e-001 1.114209e+000 -4.601681e+000 25 17 9
-2.409887e-001 1.118405e+000 -4.585477e+000 38 41 19
-3.080855e-001 1.107927e+000 -4.597487e+000 164 157 129
-5.494858e-001 1.040841e+000 -4.466484e+000 91 81 73
-9.824095e-002 1.152128e+000 -4.668374e+000 80 72 62
-1.845362e-001 1.120808e+000 -4.607100e+000 106 101 97
-5.358439e-001 1.028700e+000 -4.446109e+000 49 40 31
-3.329654e-001 1.084037e+000 -4.546685e+000 91 83 79
-3.107387e-001 1.083883e+000 -4.532791e+000 85 81 74
-5.427617e-001 1.021515e+000 -4.443809e+000 108 100 91
-4.217675e-001 1.046772e+000 -4.470564e+000 32 23 16
-2.385581e-001 1.092225e+000 -4.556536e+000 148 138 118
-2.119001e-001 1.105736e+000 -4.593218e+000 162 144 132
-1.447756e-001 1.130367e+000 -4.659670e+000 73 69 64
-2.553694e-001 1.092739e+000 -4.577973e+000 39 30 17
-5.889903e-001 9.925204e-001 -4.379490e+000 99 88 87
-2.152332e-001 1.093118e+000 -4.569990e+000 111 93 77
-6.738764e-001 9.756880e-001 -4.363103e+000 108 94 83
-6.171454e-001 9.651612e-001 -4.305985e+000 68 51 48
-5.944541e-001 9.416688e-001 -4.225696e+000 157 143 131
-5.269368e-001 9.984723e-001 -4.417442e+000 109 102 95
-3.843270e-001 1.040639e+000 -4.498532e+000 107 102 98
-2.215083e-001 1.073303e+000 -4.553513e+000 53 49 41
-6.170938e-001 9.246715e-001 -4.211701e+000 92 83 79
-4.101121e-001 1.014899e+000 -4.474399e+000 25 20 20
-1.257767e-001 1.086060e+000 -4.602808e+000 70 67 62
-3.901192e-001 1.015639e+000 -4.475148e+000 87 82 79
-1.752115e+000 6.066802e-001 -3.548253e+000 94 93 73
-3.358204e-002 1.081898e+000 -4.585032e+000 43 29 30
-3.618097e-001 9.880999e-001 -4.421066e+000 144 144 134
-1.762281e-001 1.040510e+000 -4.523178e+000 141 137 127
-1.161822e-001 1.035939e+000 -4.461590e+000 109 105 97
-3.749721e-001 9.748084e-001 -4.412227e+000 121 125 111
-9.312488e-002 1.032394e+000 -4.481618e+000 57 52 49
-3.333497e-001 9.660270e-001 -4.398070e+000 95 87 83
-2.336188e-001 9.975602e-001 -4.458537e+000 63 59 52
-1.593246e+000 6.081513e-001 -3.592913e+000 99 76 67
-6.004060e-001 8.509970e-001 -4.088037e+000 83 73 70
-3.026005e-001 9.650802e-001 -4.397079e+000 136 136 129
-6.084252e-001 8.693123e-001 -4.182189e+000 36 31 31
-3.400496e-001 9.526306e-001 -4.373179e+000 164 158 141
-1.066799e-001 1.012474e+000 -4.477830e+000 53 45 40
-3.367490e-001 9.405767e-001 -4.339726e+000 100 93 69
-2.586554e-001 9.643060e-001 -4.422468e+000 61 59 47
-6.568456e-002 9.922751e-001 -4.431288e+000 77 69 63
-2.412972e-001 9.548585e-001 -4.400556e+000 135 129 123
-5.958502e-001 8.411228e-001 -4.139252e+000 109 99 88
-1.620111e-001 9.768634e-001 -4.446814e+000 85 81 70
-1.113340e-001 9.883912e-001 -4.457104e+000 125 120 116
-3.212447e-001 9.206959e-001 -4.341284e+000 43 39 30
-5.385284e-001 8.315971e-001 -4.124517e+000 89 85 85
-4.936465e-001 8.424410e-001 -4.151555e+000 57 43 32
-5.760709e-001 8.142347e-001 -4.086584e+000 103 96 82
-3.148175e-001 9.021939e-001 -4.310512e+000 35 27 25
-1.664651e+000 5.366808e-001 -3.519518e+000 53 42 33
-5.305368e-001 8.164839e-001 -4.090329e+000 90 82 71
-5.200167e-001 8.167792e-001 -4.089113e+000 69 60 55
-2.128853e-001 9.177179e-001 -4.339609e+000 67 63 52
-1.909569e-001 9.196140e-001 -4.355992e+000 84 73 54
-4.805779e-001 8.287385e-001 -4.165378e+000 155 136 126
-4.862472e-001 8.243021e-001 -4.152030e+000 33 25 18
-1.682127e+000 5.002076e-001 -3.453990e+000 134 114 106
-1.645252e+000 5.088502e-001 -3.476287e+000 68 47 44
-5.314818e-001 7.844856e-001 -4.071416e+000 84 78 74
-4.544765e-001 8.103958e-001 -4.134596e+000 178 160 139
-2.126528e-001 8.680052e-001 -4.239175e+000 85 65 55
-1.724363e-001 8.901032e-001 -4.317755e+000 91 87 79
-5.166613e-001 7.815581e-001 -4.072168e+000 26 18 16
-4.392895e-001 8.067428e-001 -4.129592e+000 128 105 73
9.464106e-002 9.200598e-001 -4.293588e+000 114 111 97
-4.721591e-001 7.937641e-001 -4.121322e+000 142 134 129
-1.603013e+000 4.889071e-001 -3.438158e+000 113 89 71
-1.991348e-001 8.416205e-001 -4.219396e+000 40 22 19
-1.372623e-001 8.591452e-001 -4.265229e+000 79 71 64
-4.653395e-001 7.728406e-001 -4.104056e+000 152 148 135
-4.824465e-001 7.373169e-001 -3.964312e+000 146 144 132
-7.165786e-002 8.539598e-001 -4.238434e+000 70 66 56
-4.590628e-001 7.291676e-001 -3.971653e+000 40 29 22
-1.172828e-001 8.181774e-001 -4.161846e+000 90 82 77
-1.044950e-001 8.322279e-001 -4.221554e+000 103 95 93
-5.131242e-002 8.179884e-001 -4.170664e+000 96 91 85
-1.406897e+000 4.477773e-001 -3.354616e+000 77 66 58
-1.128296e-001 8.051551e-001 -4.186357e+000 30 20 17
-4.218774e-001 7.123948e-001 -3.968303e+000 30 22 16
-1.321183e-001 8.004259e-001 -4.187613e+000 148 145 136
-4.188934e-001 7.245904e-001 -4.051877e+000 166 170 145
-7.504469e-002 8.065662e-001 -4.193289e+000 160 153 142
-1.681827e+000 3.870625e-001 -3.305087e+000 191 192 158
-1.371478e+000 4.382060e-001 -3.335562e+000 142 128 110
-2.597571e-001 7.571447e-001 -4.118195e+000 30 22 17
-1.715113e-001 7.716458e-001 -4.151500e+000 66 59 66
-1.370163e+000 4.233864e-001 -3.317914e+000 77 62 44
-1.379508e+000 4.284743e-001 -3.340689e+000 55 41 33
-1.464845e-001 7.679429e-001 -4.137579e+000 171 161 162
-1.705349e-001 7.640442e-001 -4.145954e+000 167 157 153
-4.270221e-002 7.834435e-001 -4.160958e+000 74 65 63
-4.311615e-001 6.778618e-001 -3.946531e+000 110 105 102
-9.260004e-002 7.721020e-001 -4.158943e+000 178 174 169
-8.846125e-002 7.587543e-001 -4.140746e+000 111 100 93
-7.968138e-002 7.593799e-001 -4.136468e+000 98 89 75
-1.394656e+000 4.069413e-001 -3.342827e+000 119 111 100
-1.523127e-001 7.304953e-001 -4.086335e+000 31 19 15
-1.251823e-001 7.315901e-001 -4.069395e+000 37 31 31
-1.364750e+000 4.024618e-001 -3.340300e+000 154 145 142
-1.578736e+000 3.395102e-001 -3.193034e+000 49 37 28
-1.369606e+000 3.865391e-001 -3.338038e+000 209 196 197
-1.392674e+000 3.612845e-001 -3.228739e+000 165 151 145
-1.376472e+000 3.825412e-001 -3.330558e+000 43 29 33
-1.565794e+000 3.242138e-001 -3.171008e+000 58 39 35
-1.381166e+000 3.571511e-001 -3.227623e+000 109 82 71
-1.371127e+000 3.518566e-001 -3.227973e+000 134 114 100
-1.386556e+000 3.618710e-001 -3.316338e+000 91 67 65
-6.494357e-002 7.027538e-001 -4.066722e+000 200 173 167
-1.487647e+000 3.197959e-001 -3.209387e+000 20 15 8
-1.590341e+000 2.973813e-001 -3.183182e+000 177 160 147
-1.363100e+000 3.357081e-001 -3.236023e+000 225 193 167
-1.567744e+000 2.884658e-001 -3.172154e+000 75 63 58
-1.502012e+000 2.941667e-001 -3.169433e+000 113 98 91
-1.347721e+000 3.198248e-001 -3.230419e+000 234 200 179
-1.366584e+000 3.146385e-001 -3.250629e+000 66 40 26
-1.353782e+000 3.196678e-001 -3.260117e+000 214 187 199
2.710283e-001 6.963454e-001 -4.092592e+000 37 34 28
2.749328e-001 5.713470e-001 -3.933058e+000 113 110 103
3.061491e-001 5.732083e-001 -3.944669e+000 91 87 78
3.219775e-001 5.712512e-001 -3.936642e+000 56 53 47
3.339191e-001 5.653866e-001 -3.941825e+000 68 68 60
3.735574e-001 5.568053e-001 -3.935039e+000 93 91 79
-1.152573e+000 4.261586e-002 -2.767558e+000 81 82 68
-1.091691e+000 5.258808e-002 -2.847060e+000 73 71 59
-1.132912e+000 1.687176e-002 -2.790774e+000 148 151 136
4.564302e-001 3.501030e-001 -3.633823e+000 44 42 38
6.287166e-001 2.564706e-001 -3.526897e+000 41 37 34
6.932447e-001 2.579640e-001 -3.536068e+000 43 39 36
7.092783e-001 2.020348e-001 -3.460042e+000 68 67 63
6.713260e-001 -1.785174e-001 -2.893111e+000 121 118 111
6.960319e-001 -2.132646e-001 -2.827782e+000 133 132 134
7.676731e-001 -1.977040e-001 -2.851365e+000 117 122 116
7.201546e-001 -2.144344e-001 -2.822972e+000 125 127 125
8.304147e-001 -1.957160e-001 -2.857767e+000 122 126 123
7.501568e-001 -2.290080e-001 -2.802829e+000 84 86 83
7.628286e-001 -2.264101e-001 -2.802922e+000 95 99 98
8.135189e-001 -2.412278e-001 -2.776293e+000 82 84 83
1.497321e-001 -3.759193e-001 -2.361556e+000 90 94 90
4.801010e-002 -4.049515e-001 -2.317045e+000 87 87 85
2.749670e-001 -3.582670e-001 -2.371569e+000 93 93 91
7.619494e-001 -2.722492e-001 -2.717505e+000 88 90 88
7.454742e-001 -2.794104e-001 -2.704347e+000 107 110 103
7.597999e-001 -2.918731e-001 -2.681536e+000 185 176 169
7.680367e-001 -2.964933e-001 -2.677355e+000 226 217 215
2.378911e-001 -4.103386e-001 -2.383614e+000 57 55 56
7.283948e-001 -3.201659e-001 -2.629465e+000 131 133 130
6.403081e-001 -3.388675e-001 -2.550164e+000 73 75 74
5.449085e-001 -3.947010e-001 -2.479392e+000 82 81 77
7.421668e-001 -3.660973e-001 -2.543993e+000 100 103 100
7.321472e-001 -3.689907e-001 -2.537022e+000 95 97 92
5.458645e-001 -4.167203e-001 -2.436560e+000 59 58 55
5.540661e-001 -4.188174e-001 -2.440110e+000 88 89 84
5.221877e-001 -4.310125e-001 -2.401916e+000 72 67 64
6.709722e-001 -4.105881e-001 -2.460121e+000 91 96 90
-2.554662e-001 1.090188e+000 -4.571111e+000 30 20 8
-6.028846e-001 9.746024e-001 -4.354990e+000 52 35 26
-5.971111e-001 9.768664e-001 -4.370630e+000 133 122 109
-1.368640e-001 1.005098e+000 -4.474989e+000 115 111 107
-1.734874e-001 9.832004e-001 -4.455122e+000 143 138 133
-3.177946e-001 9.384427e-001 -4.359071e+000 144 136 130
-2.155705e-001 9.496994e-001 -4.394402e+000 38 34 33
-5.056187e-001 8.466161e-001 -4.135889e+000 113 101 90
-1.678956e+000 5.437432e-001 -3.519102e+000 118 115 94
-5.488253e-001 8.170561e-001 -4.072234e+000 124 116 107
-1.595518e+000 4.918665e-001 -3.463565e+000 96 65 61
-1.481644e+000 4.875716e-001 -3.432168e+000 64 51 42
-1.311661e+000 4.473842e-001 -3.324115e+000 105 100 94
-1.671470e+000 3.957941e-001 -3.334904e+000 76 56 56
-6.026116e-002 7.980089e-001 -4.165131e+000 50 43 35
-1.671447e+000 3.773267e-001 -3.301896e+000 93 86 59
-1.486783e+000 3.894141e-001 -3.319391e+000 194 160 142
5.703735e-001 2.731893e-001 -3.541254e+000 84 79 73
-1.170490e-001 -3.821228e-001 -2.251566e+000 63 62 61
8.522810e-001 -2.540170e-001 -2.758933e+000 137 128 108
-2.457551e-001 1.046220e+000 -4.506581e+000 83 77 65
-2.286630e-001 1.027698e+000 -4.498675e+000 23 19 16
-3.259293e-001 9.747607e-001 -4.394542e+000 26 23 14
-2.618912e-001 9.855131e-001 -4.392105e+000 148 145 136
-1.911013e-001 9.925088e-001 -4.460463e+000 131 123 121
-5.320862e-001 8.663479e-001 -4.144956e+000 89 82 72
-1.169515e-001 9.855372e-001 -4.433927e+000 147 140 132
-2.356852e-001 9.279574e-001 -4.271983e+000 32 29 21
-1.652280e-001 9.849673e-001 -4.460280e+000 131 126 120
-3.170232e-001 9.343147e-001 -4.366215e+000 162 150 138
-1.525215e+000 4.966342e-001 -3.448130e+000 73 48 41
-1.422458e+000 4.774428e-001 -3.382306e+000 95 77 74
-3.272762e-001 7.857627e-001 -4.119663e+000 93 74 68
-1.609105e+000 4.172696e-001 -3.310735e+000 212 179 157
-3.255639e-001 6.948841e-001 -3.995457e+000 56 52 50
-1.414988e+000 3.742759e-001 -3.327568e+000 100 86 84
-1.405147e+000 3.487819e-001 -3.276013e+000 95 84 72
-1.147597e+000 4.487633e-002 -2.794402e+000 64 60 53
-1.578216e-001 -3.832603e-001 -2.277261e+000 81 81 81
-4.763758e-002 -4.037118e-001 -2.289004e+000 67 66 64
1.734104e-001 -3.868713e-001 -2.361380e+000 65 67 66
7.379277e-001 -3.201018e-001 -2.626307e+000 58 61 62
-1.440607e+000 3.799114e-001 -3.281502e+000 57 46 41
1.836549e-001 -3.790103e-001 -2.355010e+000 36 34 39
2.252750e-001 -3.964999e-001 -2.352097e+000 81 80 76
-1.641157e+000 4.800789e-001 -3.404043e+000 68 40 39
-1.946556e-002 3.948525e-001 -2.146460e+000 225 223 233
-9.158018e-003 3.831084e-001 -2.152142e+000 226 222 224
-5.474237e-002 2.853038e-001 -2.141962e+000 140 138 139
6.083092e-001 6.608915e-002 -2.439722e+000 98 102 106
5.939225e-001 5.132768e-002 -2.428038e+000 105 106 102
6.030334e-001 4.084632e-002 -2.435258e+000 103 108 114
5.954520e-001 -2.470935e-003 -2.434689e+000 86 90 92
5.833275e-001 2.988414e-002 -2.427364e+000 52 52 50
6.887180e-002 -4.163944e-001 -2.337218e+000 89 89 87
9.127831e-002 -4.187452e-001 -2.339091e+000 42 41 41
-3.395338e-002 3.962655e-001 -2.140730e+000 190 179 186
-2.315197e-002 3.868872e-001 -2.143015e+000 148 135 146
4.119468e-001 1.006777e-002 -2.442068e+000 68 72 67
2.054196e-001 -1.320895e-001 -2.278415e+000 228 226 225
2.543995e-001 -1.441208e-001 -2.312515e+000 162 163 179
2.439420e-001 -1.519734e-001 -2.300912e+000 155 152 169
2.270608e-001 -1.563689e-001 -2.283872e+000 191 189 198
2.357844e-001 -1.642180e-001 -2.290715e+000 144 142 157
1.993488e-001 -1.632631e-001 -2.264915e+000 219 214 213
2.497305e-001 -1.648480e-001 -2.302542e+000 198 199 206
2.650934e-001 -1.705094e-001 -2.315059e+000 234 238 241
2.025609e-001 -1.716485e-001 -2.265045e+000 211 211 214
2.131614e-001 -1.761687e-001 -2.268144e+000 169 168 175
-3.122655e-002 3.651496e-001 -2.135900e+000 254 250 253
3.432718e-001 1.688431e-001 -2.396351e+000 83 87 86
-1.550891e-001 -9.819592e-002 -2.223231e+000 199 196 204
-1.422080e-001 -9.997235e-002 -2.235179e+000 206 197 202
-1.401984e-001 -1.088799e-001 -2.233110e+000 206 200 204
-1.269252e-001 -1.276194e-001 -2.238657e+000 199 190 194
-1.203380e-001 -1.305392e-001 -2.243918e+000 216 209 210
-1.166053e-001 -1.358744e-001 -2.244149e+000 206 203 196
-1.256619e-001 -1.384512e-001 -2.238345e+000 174 170 172
-1.184749e-001 -1.418564e-001 -2.241778e+000 231 226 231
-9.910460e-002 -1.748641e-001 -2.249795e+000 163 160 165
2.253906e-001 -1.681881e-001 -2.280923e+000 198 193 200
-9.806881e-002 -2.026226e-001 -2.245535e+000 212 207 213
-9.806928e-002 -2.175461e-001 -2.240433e+000 204 206 210
-7.960996e-002 -2.398923e-001 -2.252983e+000 185 187 201
-6.464209e-002 -2.615638e-001 -2.259362e+000 174 172 177
4.546936e-001 -3.028967e-001 -2.315181e+000 65 67 64
-1.136995e-001 -1.797003e-001 -2.239439e+000 144 141 150
-9.299065e-002 -1.926404e-001 -2.250607e+000 241 237 239
-1.100554e-001 -1.527095e-001 -2.243386e+000 253 251 252
-8.685562e-002 -2.059572e-001 -2.253377e+000 238 239 238
-9.369989e-002 -2.152202e-001 -2.242383e+000 215 215 219
-6.990392e-002 -2.520546e-001 -2.255285e+000 198 191 199
-1.393834e-001 -1.209498e-001 -2.240564e+000 240 234 238
-2.437275e-001 -8.303206e-002 -2.169513e+000 113 119 121
5.067278e-001 -2.938981e-001 -2.349830e+000 97 99 93
4.954117e-001 -2.991321e-001 -2.337681e+000 112 114 108
1.422010e-001 -3.929734e-001 -2.353501e+000 74 78 77
-2.207522e-001 -4.859367e-001 -2.306552e+000 82 84 81
-3.390206e-002 3.861828e-001 -2.143758e+000 190 181 204
-7.117217e-002 3.196615e-001 -2.121091e+000 103 106 111
-6.664905e-002 2.710027e-001 -2.147370e+000 153 153 151
-2.483727e-001 -8.506904e-002 -2.166305e+000 133 139 139
-2.253517e-001 -1.338624e-001 -2.169793e+000 118 124 124
5.732815e-001 2.295396e-002 -2.396584e+000 96 105 110
1.467683e-001 -7.528793e-002 -2.297494e+000 113 121 123
-6.468827e-002 -2.562728e-001 -2.259952e+000 173 175 178
-5.936748e-002 -2.720910e-001 -2.261019e+000 191 191 193
5.974928e-001 -2.020570e-001 -2.450158e+000 48 49 44
6.265108e-001 -2.291487e-001 -2.479134e+000 44 44 43
1.164658e-001 -3.579317e-001 -2.354388e+000 100 102 99
6.156895e-001 -2.637820e-001 -2.495124e+000 98 97 92
6.817649e-001 -2.499720e-001 -2.498338e+000 82 83 79
2.121392e-001 -3.936591e-001 -2.362220e+000 52 51 47
-2.620562e-001 -5.243366e-001 -2.235633e+000 108 110 105
1.575064e-001 -4.428185e-001 -2.373050e+000 94 98 101
1.721664e-001 -4.542110e-001 -2.372060e+000 93 95 90
1.721142e-001 -3.528008e-001 -2.343456e+000 135 135 132
2.527331e-001 -1.534462e-001 -2.311529e+000 154 147 168
2.433233e-001 -1.658045e-001 -2.294281e+000 255 254 255
2.204879e-001 -1.746191e-001 -2.277597e+000 188 186 194
2.464578e-001 -1.738747e-001 -2.297520e+000 180 176 186
2.707094e-001 -1.806419e-001 -2.318511e+000 224 223 233
3.048214e-001 -2.574459e-001 -2.348171e+000 81 82 77
2.087286e-001 -1.675187e-001 -2.262523e+000 164 151 161
-6.945285e-001 1.107126e+000 -4.493285e+000 86 69 53
-6.127749e-001 1.101065e+000 -4.496988e+000 83 74 66
-6.972877e-001 1.066660e+000 -4.459150e+000 105 91 78
-7.679748e-001 1.034168e+000 -4.402289e+000 108 100 84
-6.568808e-001 1.070378e+000 -4.476469e+000 105 96 87
-7.778224e-001 1.012277e+000 -4.376144e+000 63 53 43
-6.631102e-001 1.035392e+000 -4.386537e+000 22 12 4
-7.514136e-001 9.972358e-001 -4.332754e+000 102 91 81
-7.276008e-001 1.013022e+000 -4.368116e+000 115 102 91
-7.521187e-001 9.719256e-001 -4.268059e+000 123 111 97
-5.544960e-001 1.063502e+000 -4.487610e+000 77 67 58
-3.567395e-001 1.121544e+000 -4.575833e+000 172 166 153
-5.475915e-001 1.031023e+000 -4.414848e+000 33 21 14
-6.130500e-001 1.012145e+000 -4.409712e+000 101 94 86
-5.673510e-001 1.022357e+000 -4.412039e+000 68 60 41
-3.354461e-001 1.102920e+000 -4.559286e+000 101 96 74
-4.229402e-001 1.053100e+000 -4.470445e+000 114 105 95
-3.120079e-001 1.093721e+000 -4.560001e+000 107 97 92
-6.139579e-001 9.557526e-001 -4.281701e+000 147 131 125
-2.088233e+000 4.314969e-001 -3.244495e+000 87 83 72
-6.783108e-001 9.136005e-001 -4.186222e+000 136 132 108
-5.586472e-001 9.813754e-001 -4.368966e+000 134 117 117
-5.940474e-001 9.314472e-001 -4.218976e+000 157 145 143
-6.842909e-001 9.148367e-001 -4.216378e+000 107 101 83
-3.370403e-001 1.040257e+000 -4.494770e+000 88 84 75
-4.705149e-001 9.836340e-001 -4.377006e+000 108 99 92
-6.016162e-001 9.027110e-001 -4.178787e+000 83 68 49
-4.912711e-001 9.708281e-001 -4.362130e+000 41 33 34
-3.918331e-001 1.011103e+000 -4.458987e+000 87 82 77
-5.192266e-001 9.559904e-001 -4.342093e+000 172 157 150
-4.833571e-001 9.640371e-001 -4.371845e+000 133 124 116
-4.573582e-001 9.653090e-001 -4.347375e+000 115 105 99
-6.015818e-001 9.016314e-001 -4.207710e+000 115 99 89
-2.102946e+000 3.995033e-001 -3.262439e+000 92 88 78
-1.906566e+000 4.753862e-001 -3.451881e+000 93 83 71
-1.966975e+000 4.526067e-001 -3.401245e+000 147 131 99
-2.807137e-001 1.021948e+000 -4.482810e+000 147 134 128
-5.816896e-001 8.894419e-001 -4.191453e+000 62 54 44
-2.905922e-001 1.008852e+000 -4.457123e+000 105 97 88
-4.687184e-001 9.480818e-001 -4.353968e+000 52 44 31
-2.085899e+000 3.892705e-001 -3.273789e+000 97 94 77
-1.830133e+000 4.684320e-001 -3.437514e+000 97 89 79
-3.911532e-001 9.550904e-001 -4.370212e+000 51 41 29
-1.889201e+000 4.449513e-001 -3.412680e+000 86 75 69
-3.788383e-001 9.592678e-001 -4.387350e+000 85 77 81
-1.831471e+000 4.442430e-001 -3.400372e+000 93 78 78
-4.468484e-001 9.265028e-001 -4.341740e+000 22 13 12
-3.326505e-001 9.532754e-001 -4.377100e+000 60 53 43
-1.884832e+000 4.238788e-001 -3.392571e+000 88 67 66
-4.950010e-001 8.514002e-001 -4.137718e+000 110 91 79
-1.808400e+000 4.325754e-001 -3.392742e+000 189 171 171
-3.033296e-001 9.434563e-001 -4.376439e+000 137 123 112
-5.553207e-001 8.303916e-001 -4.136366e+000 62 52 44
-1.993755e+000 3.256378e-001 -3.116848e+000 76 74 56
-4.205654e-001 8.951880e-001 -4.291318e+000 117 107 100
-1.806582e+000 4.105140e-001 -3.349071e+000 120 87 77
-2.997781e-001 9.175711e-001 -4.328259e+000 137 125 109
-2.853249e-001 9.276356e-001 -4.359909e+000 69 52 33
-2.160591e-001 9.500513e-001 -4.396977e+000 34 25 30
-1.980490e+000 3.437184e-001 -3.232278e+000 61 41 31
-1.834346e+000 3.980632e-001 -3.338715e+000 111 82 83
-2.176862e-001 9.501647e-001 -4.419108e+000 32 22 26
-2.194250e-001 9.367699e-001 -4.364127e+000 84 73 65
-2.046787e-001 9.338950e-001 -4.361990e+000 159 148 142
-1.950693e-001 9.466959e-001 -4.399681e+000 61 50 48
-1.778073e+000 3.932385e-001 -3.319545e+000 128 92 87
-3.121375e-001 9.046468e-001 -4.339524e+000 104 92 89
-2.047194e+000 2.886164e-001 -3.091157e+000 55 59 40
-2.010930e+000 2.927810e-001 -3.098018e+000 54 52 29
-5.669897e-001 7.845444e-001 -4.062083e+000 52 42 42
-5.485581e-001 7.937269e-001 -4.092587e+000 21 15 17
-2.030552e+000 2.940789e-001 -3.128116e+000 124 124 92
-2.924364e-001 8.937832e-001 -4.327611e+000 137 120 118
-1.558747e-001 9.218273e-001 -4.345315e+000 157 148 132
-2.000842e+000 2.769342e-001 -3.112451e+000 73 67 64
-1.643961e-001 8.996519e-001 -4.324486e+000 62 50 57
-1.999490e+000 2.697391e-001 -3.086119e+000 123 121 106
-1.811264e+000 3.278593e-001 -3.191236e+000 120 97 96
-1.180274e-001 9.021639e-001 -4.304864e+000 134 123 113
-1.813226e-001 8.848275e-001 -4.292327e+000 101 92 84
-1.490678e-001 8.910426e-001 -4.318064e+000 126 115 114
-1.352568e-001 8.902199e-001 -4.303860e+000 47 35 37
-5.305202e-001 7.281641e-001 -3.959173e+000 85 73 66
-1.731651e-001 8.768513e-001 -4.295739e+000 92 81 67
-1.564316e-001 8.739821e-001 -4.292665e+000 107 104 83
-1.603352e-001 8.672492e-001 -4.278990e+000 168 158 141
-1.839344e+000 2.791950e-001 -3.112298e+000 53 42 19
-1.019827e-001 8.726233e-001 -4.270177e+000 112 108 107
-5.023910e-001 6.903514e-001 -3.881157e+000 61 52 45
-4.667276e-001 7.094741e-001 -3.932828e+000 76 68 62
-1.275155e-001 8.398639e-001 -4.228463e+000 62 53 51
-1.883436e+000 2.293831e-001 -3.033399e+000 197 177 162
-4.363321e-001 7.285899e-001 -4.043275e+000 133 125 119
-5.105359e-001 6.635072e-001 -3.819144e+000 113 107 83
-5.023578e-001 6.791680e-001 -3.893285e+000 19 14 10
-1.591191e+000 2.910940e-001 -3.152105e+000 149 127 127
-1.081579e-001 8.205962e-001 -4.233337e+000 111 103 98
-1.030606e-001 8.089233e-001 -4.185455e+000 121 114 106
-1.608810e+000 2.727533e-001 -3.123641e+000 108 91 81
-4.852065e-001 6.698550e-001 -3.941667e+000 31 22 18
-1.587996e+000 2.772653e-001 -3.137746e+000 104 91 82
-1.076451e-001 7.997383e-001 -4.192612e+000 68 64 56
-1.751390e+000 2.366320e-001 -3.113297e+000 128 116 111
-1.644185e+000 2.621670e-001 -3.129539e+000 232 211 210
-1.638483e+000 2.496267e-001 -3.088432e+000 203 180 187
-1.725358e+000 2.049540e-001 -2.985627e+000 63 51 37
-1.725778e-001 7.543060e-001 -4.117904e+000 123 105 105
-1.774799e+000 1.853447e-001 -2.953742e+000 248 215 209
-1.519931e-001 7.600291e-001 -4.143551e+000 179 168 157
-3.764489e-001 6.729500e-001 -4.039855e+000 53 65 40
-1.501894e-001 7.299605e-001 -4.108802e+000 159 151 146
-1.246314e-001 6.969549e-001 -4.060676e+000 124 114 104
1.437690e-001 5.248699e-001 -3.869453e+000 77 75 66
1.845431e-001 4.790039e-001 -3.823573e+000 69 61 59
2.067478e-001 4.698273e-001 -3.817115e+000 33 28 22
1.959263e-001 4.356135e-001 -3.757968e+000 66 62 57
2.190097e-001 4.350548e-001 -3.792611e+000 73 67 51
2.524422e-001 4.228107e-001 -3.770424e+000 129 122 116
2.230383e-001 4.018456e-001 -3.765511e+000 67 64 58
2.514859e-001 4.068505e-001 -3.762645e+000 110 107 92
2.801922e-001 3.950443e-001 -3.721997e+000 92 88 79
3.185990e-001 3.657663e-001 -3.709311e+000 63 59 41
3.397328e-001 3.577517e-001 -3.705142e+000 40 34 24
2.415781e-001 3.247139e-001 -3.654248e+000 55 53 48
1.951934e-001 3.030537e-001 -3.650425e+000 86 78 76
3.172781e-001 3.326586e-001 -3.688543e+000 92 87 83
-1.184597e+000 -1.848946e-001 -2.571604e+000 62 57 51
-1.215656e+000 -2.072991e-001 -2.530349e+000 119 121 113
3.749175e-001 3.251470e-001 -3.627222e+000 64 58 52
3.088749e-001 2.952235e-001 -3.623119e+000 78 74 66
2.978150e-001 2.774409e-001 -3.605276e+000 45 42 38
3.844944e-001 2.801497e-001 -3.568917e+000 82 77 71
3.876528e-001 2.746395e-001 -3.560957e+000 69 64 58
3.839604e-001 2.533139e-001 -3.554706e+000 45 41 38
3.605910e-001 2.440594e-001 -3.557278e+000 46 43 36
4.367553e-001 2.630090e-001 -3.561448e+000 64 65 60
4.287983e-001 2.578449e-001 -3.564031e+000 69 68 64
4.519752e-001 2.621529e-001 -3.547615e+000 57 56 51
3.745509e-001 1.943458e-001 -3.536242e+000 42 41 37
4.057834e-001 1.572808e-001 -3.480777e+000 80 75 71
4.161948e-001 1.266295e-001 -3.393481e+000 108 99 91
5.455322e-001 1.537985e-001 -3.458998e+000 54 50 46
4.867765e-001 9.948569e-002 -3.415049e+000 125 116 108
4.633453e-001 8.881597e-002 -3.351038e+000 231 216 227
5.653414e-001 1.182287e-001 -3.384585e+000 87 83 80
5.024970e-001 9.223919e-002 -3.399049e+000 78 71 68
4.742395e-001 7.356758e-002 -3.354447e+000 152 124 128
5.239615e-001 8.870261e-002 -3.395743e+000 74 66 63
5.432201e-001 9.060967e-002 -3.392554e+000 61 56 52
5.348166e-001 7.993965e-002 -3.374028e+000 81 71 64
5.222030e-001 6.963438e-002 -3.318295e+000 129 100 101
5.697970e-001 7.953357e-002 -3.366686e+000 147 142 110
5.818287e-001 8.126162e-002 -3.381247e+000 149 136 124
5.151208e-001 5.321881e-002 -3.312816e+000 186 134 132
5.275076e-001 5.689660e-002 -3.310380e+000 94 51 55
5.326496e-001 5.931058e-002 -3.327852e+000 150 111 105
5.426217e-001 5.981905e-002 -3.354030e+000 118 110 97
4.994402e-001 4.469533e-002 -3.327071e+000 207 166 167
5.224464e-001 5.184721e-002 -3.311410e+000 228 198 192
5.356713e-001 5.387843e-002 -3.312107e+000 55 44 39
5.875691e-001 6.596196e-002 -3.354613e+000 73 72 68
5.436975e-001 3.986193e-002 -3.293232e+000 78 67 64
5.591869e-001 3.979001e-002 -3.278835e+000 157 143 137
5.373316e-001 2.643898e-002 -3.295119e+000 217 188 184
5.799192e-001 3.471653e-002 -3.308783e+000 196 173 164
6.361152e-001 5.152019e-002 -3.329467e+000 83 83 72
6.100218e-001 1.564489e-002 -3.256715e+000 40 39 35
6.339223e-001 -5.988763e-002 -3.114112e+000 133 136 129
6.531591e-001 -1.561863e-001 -2.953020e+000 122 125 117
6.660160e-001 -1.632216e-001 -2.927330e+000 130 133 127
7.101458e-001 -2.944026e-001 -2.663308e+000 165 153 130
7.339638e-001 -3.152414e-001 -2.641295e+000 101 101 99
