ply
format ascii 1.0
element face 0
property list uchar int vertex_indices
element vertex 857
property float x
property float y
property float z
property uchar diffuse_red
property uchar diffuse_green
property uchar diffuse_blue
end_header
2.050076e-001 -9.164325e-002 -2.298129e+000 223 222 221
-3.779886e-001 -9.523504e-002 -2.144994e+000 181 175 176
-3.779942e-001 -9.853815e-002 -2.146835e+000 219 213 215
2.206723e-001 -1.168794e-001 -2.304815e+000 153 152 171
2.090448e-001 -1.255330e-001 -2.289913e+000 205 206 208
2.468502e-001 -1.287937e-001 -2.318027e+000 99 104 99
2.283810e-001 -1.346877e-001 -2.300567e+000 197 196 202
1.967112e-001 -1.352839e-001 -2.274768e+000 198 197 193
-1.694982e-001 -1.393689e-001 -2.198550e+000 216 215 220
7.968566e-002 -1.416596e-001 -2.269812e+000 98 108 106
1.957228e-001 -1.393571e-001 -2.270926e+000 248 247 243
8.611607e-002 -1.447439e-001 -2.268650e+000 88 97 94
7.634670e-002 -1.515632e-001 -2.272615e+000 118 129 128
6.823719e-002 -1.540430e-001 -2.277093e+000 110 121 117
1.924288e-001 -1.557298e-001 -2.267104e+000 151 151 146
2.528528e-001 -1.597690e-001 -2.312664e+000 212 215 223
1.159401e-001 -1.584114e-001 -2.255843e+000 110 119 118
2.600085e-001 -1.687039e-001 -2.315611e+000 194 200 208
2.276947e-001 -1.690383e-001 -2.287008e+000 175 173 185
2.133329e-001 -1.751970e-001 -2.273790e+000 225 226 230
2.417867e-001 -1.774083e-001 -2.300916e+000 181 185 188
2.649455e-001 -1.781903e-001 -2.316686e+000 165 176 179
-2.260196e-001 -1.754006e-001 -2.167244e+000 123 130 126
2.692111e-001 -1.922709e-001 -2.314087e+000 171 176 179
-5.041871e-001 -2.046305e-001 -2.177533e+000 239 237 243
-5.151384e-001 -2.103013e-001 -2.183642e+000 183 181 194
3.322764e-001 -2.246864e-001 -2.333480e+000 71 77 67
2.819716e-001 -2.264535e-001 -2.328720e+000 84 95 91
-5.135167e-001 -2.302868e-001 -2.186361e+000 165 162 180
9.388008e-002 -2.334496e-001 -2.269009e+000 114 118 117
-5.150499e-001 -2.379068e-001 -2.188487e+000 162 159 168
2.848691e-001 -2.442227e-001 -2.334063e+000 88 97 92
-4.945699e-001 -2.396166e-001 -2.181024e+000 212 212 223
-4.854851e-001 -2.393081e-001 -2.177326e+000 196 190 215
-4.520973e-001 -2.423306e-001 -2.211477e+000 98 108 100
-5.107972e-001 -2.438758e-001 -2.189835e+000 158 156 159
-5.333562e-001 -2.456370e-001 -2.203681e+000 180 174 186
-5.051625e-001 -2.455834e-001 -2.187958e+000 205 205 210
-5.028609e-001 -2.459285e-001 -2.188220e+000 132 132 130
-4.054638e-001 -2.466404e-001 -2.217777e+000 61 67 62
-4.180018e-001 -2.497360e-001 -2.220976e+000 98 106 97
-4.889136e-001 -2.474844e-001 -2.181732e+000 160 158 167
-4.024476e-001 -2.508516e-001 -2.222179e+000 112 116 115
-4.986824e-001 -2.494789e-001 -2.185896e+000 164 162 163
-4.373121e-001 -2.522856e-001 -2.211820e+000 107 115 112
1.215099e-001 -2.532418e-001 -2.277291e+000 122 124 120
-4.928316e-001 -2.520427e-001 -2.183962e+000 144 142 145
-1.225334e-001 -2.525486e-001 -2.224697e+000 123 133 134
-5.182570e-001 -2.567686e-001 -2.199795e+000 177 171 187
-4.985370e-001 -2.554756e-001 -2.185858e+000 165 163 170
3.039190e-001 -2.665064e-001 -2.349807e+000 91 102 97
-4.744404e-001 -2.582488e-001 -2.183729e+000 152 151 177
-3.839439e-001 -2.634911e-001 -2.205774e+000 78 83 79
2.233562e-001 -2.681208e-001 -2.305840e+000 106 108 107
-3.780232e-001 -2.666405e-001 -2.201258e+000 87 92 86
-6.031004e-002 -2.748957e-001 -2.265717e+000 167 174 173
-6.688819e-002 -2.758546e-001 -2.256771e+000 189 194 197
1.791982e-001 -2.826551e-001 -2.294386e+000 77 78 72
-3.861518e-001 -2.810244e-001 -2.183409e+000 149 149 137
1.961843e-001 -2.897532e-001 -2.304605e+000 96 97 89
3.250421e-001 -2.972775e-001 -2.362217e+000 76 82 78
2.218774e-001 -2.966720e-001 -2.318413e+000 75 72 68
2.285395e-001 -3.006848e-001 -2.318260e+000 77 76 71
2.463405e-001 -3.057088e-001 -2.332353e+000 79 79 72
-7.688557e-002 -3.123590e-001 -2.252476e+000 118 127 128
2.092593e-001 -3.237296e-001 -2.339993e+000 49 49 40
-1.361991e-001 -3.270659e-001 -2.238648e+000 101 106 106
1.647228e-001 -3.518904e-001 -2.341338e+000 103 103 96
1.168962e-001 -3.553799e-001 -2.354309e+000 70 70 70
2.792494e-001 -3.606100e-001 -2.372509e+000 109 110 105
7.921485e-001 -3.765297e-001 -2.484284e+000 114 115 102
-2.363508e-001 -3.431154e-001 -2.216895e+000 59 60 54
2.350290e-001 -3.623029e-001 -2.355332e+000 134 141 137
-8.622926e-002 -3.530011e-001 -2.264297e+000 104 108 112
-2.687434e-002 -3.577397e-001 -2.283773e+000 108 111 106
-2.350603e-001 -3.521770e-001 -2.223088e+000 149 146 139
-2.043716e-001 -3.620486e-001 -2.243823e+000 75 73 68
7.686754e-001 -3.923253e-001 -2.458411e+000 221 219 208
-2.500363e-002 -3.692251e-001 -2.286338e+000 133 135 131
-1.259633e-001 -3.746737e-001 -2.258808e+000 106 104 107
-2.336160e-002 -3.767328e-001 -2.283281e+000 81 84 81
7.144944e-001 -4.014030e-001 -2.439646e+000 106 103 93
-2.506125e-001 -3.755156e-001 -2.236446e+000 138 137 124
7.374426e-001 -4.030525e-001 -2.439849e+000 154 144 134
-1.636818e-001 -3.787114e-001 -2.257342e+000 134 137 130
7.047949e-001 -4.067317e-001 -2.437467e+000 153 149 127
7.206416e-001 -4.025088e-001 -2.423202e+000 75 68 68
2.059092e-001 -3.992653e-001 -2.367227e+000 65 65 63
-3.116207e-001 -3.845035e-001 -2.230758e+000 137 130 116
6.962348e-001 -4.122913e-001 -2.421483e+000 137 138 114
-2.741547e-001 -3.903408e-001 -2.243572e+000 123 121 106
-7.835632e-002 -4.018636e-001 -2.289615e+000 109 110 105
-4.263502e-002 -4.120845e-001 -2.304814e+000 115 114 109
1.136845e-001 -4.242751e-001 -2.349573e+000 136 136 134
1.015460e-002 -4.222320e-001 -2.326394e+000 98 97 94
1.747630e-001 -4.295129e-001 -2.370327e+000 106 109 104
-1.570923e-001 -4.249253e-001 -2.295870e+000 105 106 101
1.144897e-001 -4.365702e-001 -2.358825e+000 76 78 75
1.254422e-001 -4.365912e-001 -2.343553e+000 68 70 67
3.508384e-001 -4.601303e-001 -2.354489e+000 252 244 237
7.191911e-002 -4.785396e-001 -2.321601e+000 99 104 98
-4.007175e-002 -4.886189e-001 -2.302175e+000 77 81 79
2.174632e-002 -4.923197e-001 -2.313522e+000 171 169 149
-3.226979e-001 -5.079508e-001 -2.269099e+000 96 98 93
-1.973709e-001 -5.110028e-001 -2.263435e+000 88 93 88
-4.028599e-001 -5.250135e-001 -2.241657e+000 171 170 159
-1.823805e-002 3.502913e-001 -2.141455e+000 150 137 146
2.085919e-001 -9.359671e-002 -2.303031e+000 255 253 254
-4.109208e-001 -1.028994e-001 -2.175366e+000 185 176 184
2.088041e-001 -1.658850e-001 -2.274209e+000 184 178 187
-4.954141e-001 -1.852316e-001 -2.167771e+000 134 132 119
-4.924417e-001 -2.186189e-001 -2.167401e+000 223 219 219
-5.048962e-001 -2.371098e-001 -2.185549e+000 129 127 140
-4.030900e-001 -2.447323e-001 -2.221812e+000 70 72 71
1.978014e-001 -3.319512e-001 -2.344206e+000 33 34 26
1.949697e-001 -3.472287e-001 -2.351182e+000 90 92 85
1.695387e-001 -4.159446e-001 -2.349737e+000 127 130 123
-3.690639e-002 3.451059e-001 -2.125085e+000 171 161 172
-7.450742e-003 3.460212e-001 -2.150113e+000 234 231 227
-3.731104e-001 -6.677902e-002 -2.152064e+000 106 116 112
2.099035e-001 -8.286077e-002 -2.303730e+000 252 251 248
2.137756e-001 -9.511551e-002 -2.313946e+000 255 254 255
-4.414494e-001 -1.083683e-001 -2.141122e+000 254 251 254
2.290444e-001 -1.220940e-001 -2.308658e+000 154 156 178
-4.578143e-001 -1.300855e-001 -2.182539e+000 222 219 210
2.273583e-001 -1.712823e-001 -2.290642e+000 212 210 217
-4.976727e-001 -2.424213e-001 -2.186429e+000 125 123 138
-4.778614e-001 -2.475858e-001 -2.183212e+000 254 253 252
-3.822064e-001 -2.803830e-001 -2.182484e+000 144 145 141
-1.752533e-001 -3.265827e-001 -2.222545e+000 70 73 72
-1.859155e-001 -3.491410e-001 -2.227866e+000 70 70 68
-5.687046e-002 -3.640793e-001 -2.276864e+000 68 73 69
-1.785819e-001 -3.611184e-001 -2.245541e+000 135 136 131
1.825224e-001 -3.815818e-001 -2.359218e+000 17 18 19
-1.782049e-001 -3.805358e-001 -2.257293e+000 64 65 59
6.935138e-001 -4.179692e-001 -2.416195e+000 58 56 46
-5.097930e-001 -2.499538e-001 -2.200606e+000 186 186 196
-3.881908e-001 -2.777832e-001 -2.196934e+000 137 138 127
5.101559e-001 -3.098026e-001 -2.364280e+000 81 91 82
-1.393271e-001 -3.811627e-001 -2.264058e+000 61 60 58
2.100713e-001 -3.988793e-001 -2.364452e+000 26 26 24
6.885695e-001 -4.178326e-001 -2.404809e+000 57 62 49
8.698278e-002 -4.123172e-001 -2.320821e+000 39 40 39
-3.866466e-001 -2.720891e-001 -2.202174e+000 115 120 115
-1.756462e-001 -3.702905e-001 -2.256546e+000 68 67 63
-4.892648e-001 -1.738305e-001 -2.171010e+000 141 138 132
-4.249120e-001 -2.702269e-001 -2.226525e+000 254 254 255
4.593662e-002 3.472903e-001 -2.230865e+000 121 121 121
6.233484e-002 3.074767e-001 -2.243751e+000 138 139 141
-1.474622e-004 2.373803e-001 -2.214826e+000 138 135 134
2.952607e-003 2.389175e-001 -2.217820e+000 99 92 93
-1.285364e-002 2.224622e-001 -2.221706e+000 125 124 130
-2.689014e-001 -1.737027e-001 -2.157746e+000 116 120 123
1.961387e-001 -1.398041e-001 -2.271742e+000 210 205 209
2.455392e-001 -1.288461e-001 -2.313599e+000 99 101 98
1.991956e-001 -1.452452e-001 -2.273909e+000 193 187 189
-1.394899e-001 -1.802044e-001 -2.217267e+000 114 117 118
1.153534e-001 -1.584958e-001 -2.252805e+000 120 125 127
2.364192e-001 -1.471103e-001 -2.297025e+000 196 193 201
1.821131e-001 -1.629733e-001 -2.257060e+000 157 161 162
1.573080e-001 -1.676951e-001 -2.254240e+000 125 126 131
1.989595e-001 -1.644608e-001 -2.267433e+000 255 249 254
2.011400e-001 -1.672530e-001 -2.268041e+000 175 165 174
1.898901e-001 -1.759707e-001 -2.259073e+000 133 136 140
1.949646e-001 -1.751055e-001 -2.266457e+000 145 145 151
2.554554e-001 -1.605912e-001 -2.312019e+000 131 132 136
2.115737e-001 -1.752356e-001 -2.273574e+000 216 212 217
2.394631e-001 -1.773441e-001 -2.290995e+000 180 178 180
2.336755e-001 -1.830229e-001 -2.286190e+000 166 167 166
2.525114e-001 -1.783030e-001 -2.306093e+000 180 186 186
5.660154e-001 -1.436582e-001 -2.386368e+000 59 60 57
2.436436e-001 -1.893911e-001 -2.294588e+000 129 128 133
2.485378e-001 -1.893217e-001 -2.297786e+000 196 199 204
-1.192586e-001 -2.390746e-001 -2.222985e+000 129 132 136
5.869442e-001 -1.553377e-001 -2.402697e+000 82 84 83
2.670738e-001 -1.935616e-001 -2.325332e+000 166 170 171
5.581127e-001 -1.631316e-001 -2.400024e+000 97 99 94
2.532465e-001 -2.068370e-001 -2.304685e+000 122 125 125
-1.228315e-001 -2.522852e-001 -2.223885e+000 125 129 138
2.992600e-001 -2.068011e-001 -2.341002e+000 127 132 135
2.933135e-001 -2.116202e-001 -2.336433e+000 104 110 107
6.092982e-001 -1.782928e-001 -2.425090e+000 72 72 72
2.820661e-001 -2.266293e-001 -2.327892e+000 91 95 94
5.836212e-001 -1.868594e-001 -2.425850e+000 96 97 98
3.087082e-001 -2.253093e-001 -2.343948e+000 66 71 67
-6.199771e-002 -2.739588e-001 -2.261010e+000 190 188 196
2.417589e-001 -2.516453e-001 -2.302354e+000 137 136 136
2.261520e-001 -2.590178e-001 -2.291166e+000 131 127 126
6.499202e-001 -1.965521e-001 -2.446868e+000 68 70 66
2.071011e-001 -2.826759e-001 -2.301913e+000 113 103 101
3.138280e-001 -2.659451e-001 -2.349521e+000 107 109 103
-1.732708e-001 -3.261400e-001 -2.223441e+000 65 64 69
5.450701e-001 -2.329948e-001 -2.452694e+000 65 63 59
-1.749679e-001 -3.313311e-001 -2.222748e+000 73 72 73
1.721530e-001 -2.937919e-001 -2.305514e+000 108 101 95
-4.291282e-001 -3.570098e-001 -2.216317e+000 127 110 103
2.072974e-001 -2.941330e-001 -2.309886e+000 73 68 62
6.496575e-001 -2.334271e-001 -2.471970e+000 50 52 49
2.219612e-001 -2.958565e-001 -2.314132e+000 65 58 48
-2.390653e-001 -3.497270e-001 -2.220977e+000 66 55 54
2.413108e-001 -3.069415e-001 -2.324245e+000 89 81 78
3.293088e-001 -2.939124e-001 -2.357658e+000 100 102 99
2.337972e-001 -3.068198e-001 -2.328661e+000 87 82 76
2.480601e-001 -3.062375e-001 -2.327939e+000 62 58 47
-2.055280e-001 -3.579839e-001 -2.237572e+000 91 84 74
6.766466e-001 -2.516559e-001 -2.486488e+000 71 70 68
1.598967e-001 -3.188755e-001 -2.335290e+000 115 112 104
2.497352e-001 -3.136531e-001 -2.335034e+000 140 137 125
6.048833e-001 -2.610320e-001 -2.483383e+000 91 90 88
2.430142e-001 -3.167336e-001 -2.333555e+000 95 92 81
2.726857e-001 -3.129050e-001 -2.343474e+000 132 131 123
-2.029625e-001 -3.684474e-001 -2.238869e+000 71 67 60
2.547125e-001 -3.178291e-001 -2.337381e+000 87 85 72
-2.071343e-001 -3.737187e-001 -2.246218e+000 96 92 83
-2.020943e-001 -3.764045e-001 -2.248731e+000 79 75 69
-1.789588e-001 -3.734422e-001 -2.252152e+000 128 120 118
-1.950855e-001 -3.784766e-001 -2.247674e+000 143 141 124
2.525132e-001 -3.273845e-001 -2.348985e+000 123 121 108
2.470456e-001 -3.302602e-001 -2.348940e+000 79 73 64
-1.257452e-001 -3.752070e-001 -2.261207e+000 106 102 100
1.830775e-002 -3.565726e-001 -2.300489e+000 120 120 121
1.775602e-001 -3.397991e-001 -2.350193e+000 87 86 83
1.040963e-001 -3.486973e-001 -2.349340e+000 122 120 121
2.162972e-001 -3.408132e-001 -2.354302e+000 121 116 110
-2.522440e-001 -3.995409e-001 -2.255868e+000 61 52 48
1.647235e-001 -3.520536e-001 -2.339801e+000 122 119 115
1.963737e-001 -3.486019e-001 -2.351864e+000 121 120 116
-2.145197e-002 -3.786533e-001 -2.291057e+000 87 82 78
-1.732806e-001 -3.954498e-001 -2.267984e+000 97 92 88
-2.669395e-001 -4.076514e-001 -2.258729e+000 115 106 91
2.282247e-001 -3.649438e-001 -2.348858e+000 133 133 130
-1.901738e-001 -4.151776e-001 -2.278441e+000 112 103 104
1.689199e-002 -3.954157e-001 -2.308352e+000 77 78 75
-1.919606e-001 -4.240096e-001 -2.294182e+000 121 115 112
1.778189e-001 -3.893882e-001 -2.366309e+000 131 131 127
2.297595e-001 -3.873729e-001 -2.354023e+000 133 125 123
2.334846e-001 -3.923649e-001 -2.359122e+000 118 115 106
1.879453e-001 -3.995346e-001 -2.367246e+000 53 51 52
1.994255e-001 -3.996875e-001 -2.366540e+000 133 132 127
2.063080e-001 -3.998455e-001 -2.368170e+000 102 99 92
1.944263e-001 -4.046098e-001 -2.367229e+000 78 79 72
-4.767671e-002 -4.352279e-001 -2.328029e+000 116 111 108
6.475479e-002 -4.221305e-001 -2.351035e+000 100 90 92
1.869238e-001 -4.094211e-001 -2.367203e+000 80 81 76
2.239749e-001 -4.078580e-001 -2.371471e+000 102 102 92
2.445752e-001 -4.078389e-001 -2.376103e+000 67 64 59
2.043720e-001 -4.150654e-001 -2.369517e+000 82 83 78
1.586125e-001 -4.218726e-001 -2.359761e+000 135 135 136
1.139952e-001 -4.358573e-001 -2.357960e+000 104 104 102
1.672209e-001 -4.302435e-001 -2.365221e+000 142 142 141
1.190480e-001 -4.416253e-001 -2.363187e+000 100 99 97
2.468945e-001 -4.299473e-001 -2.379227e+000 112 113 113
2.564304e-001 -4.284646e-001 -2.386232e+000 117 122 126
2.219943e-001 -4.358049e-001 -2.365864e+000 88 87 86
2.617698e-001 -4.304325e-001 -2.388959e+000 88 92 95
2.379308e-001 -4.515250e-001 -2.371441e+000 85 88 81
-3.428062e-002 2.904780e-001 -2.143156e+000 90 86 82
3.257617e-001 -2.789435e-001 -2.357406e+000 80 83 76
-3.854702e-002 -3.718792e-001 -2.284644e+000 78 76 74
1.891022e-001 -3.893415e-001 -2.364220e+000 27 24 21
1.544013e-001 -4.395592e-001 -2.372431e+000 104 108 101
-1.222191e-002 2.274610e-001 -2.211574e+000 69 59 57
2.502683e-001 -1.595300e-001 -2.309783e+000 216 211 218
2.563869e-001 -1.971375e-001 -2.306054e+000 231 230 236
3.093903e-001 -2.257432e-001 -2.343687e+000 70 75 71
5.845508e-001 -2.006078e-001 -2.443108e+000 41 41 39
2.074158e-001 -2.967522e-001 -2.304928e+000 66 61 55
-1.821587e-001 -3.532633e-001 -2.229621e+000 58 52 52
1.982478e-001 -3.327177e-001 -2.343964e+000 50 45 41
6.483035e-003 -3.898403e-001 -2.305683e+000 109 104 100
-1.890171e-001 -4.136505e-001 -2.280932e+000 120 112 110
4.222079e-002 -4.269414e-001 -2.336693e+000 153 143 141
1.770036e-001 -4.152693e-001 -2.360798e+000 69 65 64
-7.452829e-002 -2.405299e-001 -2.257756e+000 252 253 247
-1.713237e-001 -3.711518e-001 -2.260639e+000 104 94 92
-1.922655e-001 -3.950128e-001 -2.260920e+000 63 57 62
1.801736e-002 2.634967e-001 -2.208886e+000 127 118 113
-1.757879e-001 -3.277079e-001 -2.223426e+000 91 90 88
-1.923264e-001 -3.579559e-001 -2.242786e+000 73 66 61
-1.372221e-001 1.037710e+000 -4.466659e+000 125 121 111
-4.118815e-001 9.953621e-001 -4.396066e+000 85 78 75
-2.376408e-001 1.027289e+000 -4.461109e+000 103 101 86
-1.156984e-001 1.032793e+000 -4.446686e+000 93 86 83
-3.210599e-001 9.948102e-001 -4.374907e+000 51 40 38
-1.773725e-001 1.032655e+000 -4.478404e+000 70 63 58
-2.585837e-001 9.852242e-001 -4.362216e+000 154 147 136
-3.550712e-001 9.809183e-001 -4.379128e+000 62 59 49
-2.358632e-001 9.891851e-001 -4.383781e+000 22 20 13
-1.208840e-001 1.006102e+000 -4.414848e+000 92 89 93
-3.859926e-001 9.716631e-001 -4.365325e+000 145 141 129
-2.583736e-001 9.819916e-001 -4.374078e+000 133 130 117
-1.128937e-001 1.001656e+000 -4.404573e+000 83 79 80
-8.007238e-002 1.012220e+000 -4.443672e+000 76 70 57
-3.557240e-001 9.666040e-001 -4.368648e+000 36 32 30
-1.990893e-001 9.925363e-001 -4.421616e+000 52 47 44
-3.657368e-001 9.523676e-001 -4.337350e+000 126 123 109
-2.089764e-001 9.804624e-001 -4.399073e+000 156 151 144
-3.522763e-001 9.408699e-001 -4.303603e+000 163 160 142
-2.438965e-001 9.618685e-001 -4.362865e+000 43 39 36
-1.877082e-001 9.659185e-001 -4.369193e+000 126 123 106
-3.337333e-001 9.248810e-001 -4.299756e+000 79 72 72
-2.287768e-001 9.385824e-001 -4.337879e+000 146 141 139
-2.561878e-001 9.340647e-001 -4.331679e+000 51 43 39
-1.814582e-001 9.433003e-001 -4.343565e+000 59 51 52
-1.703965e-001 9.300771e-001 -4.327942e+000 161 152 129
-2.146973e-001 9.111589e-001 -4.286735e+000 147 142 134
-2.105805e-001 8.913219e-001 -4.232665e+000 97 91 89
-1.135434e-001 9.002759e-001 -4.241135e+000 115 108 98
1.217207e-001 9.164122e-001 -4.231601e+000 80 75 66
-1.016714e-001 9.035089e-001 -4.264900e+000 110 101 95
-1.891093e-001 8.893090e-001 -4.252403e+000 108 101 89
-9.789557e-002 8.921913e-001 -4.243005e+000 70 61 52
-1.270917e-001 8.891224e-001 -4.270976e+000 33 27 29
-1.017341e-001 8.850706e-001 -4.235000e+000 92 85 72
1.149721e-001 8.983378e-001 -4.214269e+000 102 93 88
-1.673661e-001 8.723475e-001 -4.237505e+000 73 68 56
-1.192974e-001 8.780831e-001 -4.254302e+000 125 122 113
1.273538e-001 8.912280e-001 -4.205801e+000 79 70 63
1.158683e-001 8.804774e-001 -4.193086e+000 101 93 81
1.047200e-001 8.775375e-001 -4.202529e+000 22 13 9
-1.575940e-001 8.400550e-001 -4.185466e+000 25 15 8
-5.474081e-002 8.532189e-001 -4.213163e+000 163 156 150
1.079274e-002 8.500142e-001 -4.184935e+000 74 64 60
1.162195e-001 8.663004e-001 -4.200219e+000 37 33 30
-6.030305e-002 8.432569e-001 -4.193485e+000 95 91 82
-3.115877e-002 8.344981e-001 -4.179880e+000 99 95 86
1.645793e-002 8.354464e-001 -4.178186e+000 58 51 48
-5.726373e-002 8.182864e-001 -4.162162e+000 170 165 162
-7.756503e-003 8.125531e-001 -4.139087e+000 68 65 60
-3.227881e-002 8.162650e-001 -4.179446e+000 62 58 55
3.011533e-002 8.186660e-001 -4.148892e+000 8 7 5
-7.736767e-002 7.990740e-001 -4.143265e+000 157 155 143
-4.622255e-002 8.030023e-001 -4.140618e+000 42 37 33
-3.459293e-002 8.040388e-001 -4.147445e+000 94 91 82
-2.423321e-002 8.020005e-001 -4.148685e+000 80 76 74
-4.886266e-002 7.934624e-001 -4.137726e+000 118 112 117
-1.234677e-003 7.940890e-001 -4.122000e+000 81 78 73
-6.529319e-002 7.885963e-001 -4.132169e+000 149 146 143
-3.150012e-002 7.897654e-001 -4.148349e+000 128 123 119
-2.894245e-003 7.716441e-001 -4.080430e+000 99 95 86
-5.740507e-002 7.591487e-001 -4.087712e+000 131 128 111
-3.848908e-002 7.531936e-001 -4.070436e+000 130 127 107
-1.709225e-002 7.612043e-001 -4.098262e+000 82 77 73
1.551710e-002 7.500700e-001 -4.074185e+000 101 97 93
1.940526e-003 7.466497e-001 -4.068578e+000 24 20 17
2.278353e-002 7.442374e-001 -4.059227e+000 69 68 61
-5.407247e-003 7.398765e-001 -4.069901e+000 125 121 118
1.118308e-002 7.346866e-001 -4.051863e+000 137 134 128
4.495559e-002 7.267487e-001 -4.038699e+000 87 82 79
-8.135287e-002 7.049732e-001 -4.019559e+000 119 102 89
3.846566e-002 7.083672e-001 -4.023275e+000 116 114 110
-2.937467e-002 3.496739e-001 -2.132573e+000 221 218 225
-3.209294e-002 3.472587e-001 -2.130398e+000 188 178 176
1.403411e-001 6.880898e-001 -3.995270e+000 64 61 56
4.370305e-002 6.775971e-001 -4.000256e+000 132 128 127
1.875130e-002 6.694963e-001 -3.982056e+000 156 153 147
5.678203e-003 6.613460e-001 -3.958598e+000 122 113 107
6.112797e-002 6.685835e-001 -3.980005e+000 65 61 57
8.298054e-002 6.651678e-001 -3.964602e+000 55 54 47
5.280878e-002 6.601045e-001 -3.973646e+000 88 85 78
-1.094507e+000 4.558379e-001 -3.402795e+000 82 78 66
5.830148e-002 6.337052e-001 -3.901653e+000 57 53 50
2.072135e-001 6.553209e-001 -3.999252e+000 56 52 41
-1.296588e+000 4.053190e-001 -3.321995e+000 87 80 69
3.622722e-002 6.220527e-001 -3.917402e+000 54 49 46
2.250942e-001 6.475300e-001 -3.990109e+000 37 48 30
2.270608e-001 6.364416e-001 -3.972331e+000 146 148 134
-1.380435e+000 3.819089e-001 -3.329629e+000 60 50 42
2.125377e-001 6.254131e-001 -3.931409e+000 73 69 63
2.307299e-001 6.277416e-001 -3.957606e+000 144 143 124
-1.314020e+000 3.751343e-001 -3.311174e+000 57 46 35
-1.269648e+000 3.781378e-001 -3.307294e+000 89 81 68
3.694548e-001 6.431289e-001 -4.025848e+000 142 128 128
-1.339203e+000 3.727471e-001 -3.320963e+000 170 147 131
1.689896e-001 6.081555e-001 -3.951391e+000 127 124 117
-1.286994e+000 3.703963e-001 -3.312609e+000 154 145 128
2.305792e-001 5.985057e-001 -3.916770e+000 100 95 89
-1.340039e+000 3.594059e-001 -3.323579e+000 168 150 135
3.969980e-001 6.300259e-001 -4.028148e+000 21 14 17
-1.286011e+000 3.550244e-001 -3.301695e+000 141 133 114
4.062799e-001 6.277039e-001 -4.027528e+000 147 139 149
-1.347567e+000 3.514941e-001 -3.320963e+000 146 132 118
-1.305483e+000 3.514166e-001 -3.305886e+000 134 123 94
2.247537e-001 5.821546e-001 -3.890670e+000 91 86 82
-1.320129e+000 3.473781e-001 -3.310021e+000 230 213 182
-1.119876e+000 3.751434e-001 -3.382228e+000 86 78 66
1.324097e-002 2.911362e-001 -2.178174e+000 124 129 132
-1.260072e+000 3.051160e-001 -3.284245e+000 97 87 78
-1.263159e+000 2.483286e-001 -3.201955e+000 100 70 68
-1.035678e+000 7.119115e-002 -2.883266e+000 93 95 79
-1.016372e+000 5.171028e-002 -2.883311e+000 93 95 81
6.678439e-001 1.631657e-001 -3.390302e+000 60 61 54
-5.048155e-001 -2.372093e-001 -2.185108e+000 126 123 132
8.077641e-001 -1.322354e-001 -2.939467e+000 118 124 118
-4.509572e-001 -2.754551e-001 -2.179971e+000 243 240 253
7.115137e-001 -1.653750e-001 -2.880070e+000 64 63 60
7.078786e-001 -1.755230e-001 -2.867315e+000 104 106 101
7.279844e-001 -1.895976e-001 -2.834505e+000 108 113 107
7.970776e-001 -2.086932e-001 -2.807949e+000 118 121 117
8.489817e-001 -2.221878e-001 -2.769315e+000 123 136 107
7.525822e-001 -2.391362e-001 -2.765071e+000 120 126 122
8.262665e-001 -2.297421e-001 -2.770405e+000 154 165 135
8.387285e-001 -2.398646e-001 -2.749895e+000 103 111 75
8.512437e-001 -2.478550e-001 -2.736016e+000 88 88 74
6.797251e-002 -3.169354e-001 -2.334344e+000 115 117 114
4.908592e-002 -3.239973e-001 -2.329529e+000 121 130 126
-2.479169e-001 -3.685442e-001 -2.232726e+000 75 71 60
-1.938507e-001 -3.650795e-001 -2.243702e+000 108 105 100
6.404850e-002 -3.429632e-001 -2.331055e+000 128 134 134
-1.913192e-001 -3.813944e-001 -2.259453e+000 138 138 129
-1.248837e-001 -3.746218e-001 -2.259659e+000 120 118 119
9.947643e-002 -3.513466e-001 -2.349478e+000 73 75 70
-1.732938e-001 -3.952293e-001 -2.268723e+000 110 109 105
-3.301186e-002 -3.799319e-001 -2.308338e+000 108 110 108
7.309259e-001 -3.132053e-001 -2.626648e+000 47 49 46
7.255811e-001 -3.179939e-001 -2.620941e+000 33 37 36
1.217953e-001 -3.728354e-001 -2.354598e+000 135 138 135
2.786720e-001 -3.608459e-001 -2.375380e+000 105 104 98
1.640671e-002 -3.950223e-001 -2.309903e+000 78 79 74
1.432053e-001 -3.834518e-001 -2.359306e+000 70 72 67
1.598329e-001 -3.813449e-001 -2.367610e+000 75 77 74
1.905480e-001 -3.906877e-001 -2.365561e+000 65 65 63
6.891650e-001 -3.534593e-001 -2.549177e+000 62 64 59
2.055124e-001 -3.996232e-001 -2.368849e+000 90 89 88
1.571059e-001 -4.113517e-001 -2.357702e+000 63 65 64
1.881951e-001 -4.101022e-001 -2.364833e+000 82 82 78
1.681281e-001 -4.471289e-001 -2.375940e+000 67 67 65
2.591475e-001 -4.392744e-001 -2.389601e+000 50 48 49
6.064983e-001 -4.059066e-001 -2.452208e+000 80 82 77
-1.419806e-001 9.792321e-001 -4.388421e+000 134 131 123
-2.418640e-001 9.353575e-001 -4.328783e+000 147 144 140
-9.107462e-002 8.709679e-001 -4.224524e+000 45 41 38
-7.106338e-002 8.735388e-001 -4.232605e+000 128 123 127
2.071580e-002 6.995394e-001 -4.011527e+000 103 98 97
-1.325282e+000 3.674301e-001 -3.334044e+000 205 192 156
7.088697e-002 -4.124738e-001 -2.330822e+000 59 60 55
-1.546926e-001 9.509188e-001 -4.374403e+000 135 130 124
-8.821043e-002 8.748488e-001 -4.255650e+000 139 136 130
-4.759485e-002 8.016826e-001 -4.135604e+000 40 35 29
2.390011e-002 7.921708e-001 -4.093705e+000 134 130 127
3.221508e-002 7.239896e-001 -3.954186e+000 106 104 98
-1.300989e+000 4.254666e-001 -3.299389e+000 132 121 109
-9.410426e-002 -2.223956e-001 -2.250273e+000 177 179 183
1.718219e-002 -3.956101e-001 -2.319081e+000 88 89 84
2.883178e-002 -4.031650e-001 -2.326495e+000 58 58 58
1.816896e-001 -3.865486e-001 -2.370965e+000 33 33 34
2.112540e-001 -3.938058e-001 -2.356587e+000 38 38 38
-1.221573e-001 8.633648e-001 -4.171209e+000 136 133 125
-7.876290e-002 7.670415e-001 -4.104843e+000 183 180 174
-1.961450e-001 -3.974525e-001 -2.268545e+000 51 47 47
1.726521e-001 -4.197536e-001 -2.366286e+000 147 152 146
5.520644e-002 -2.671455e-001 -2.322765e+000 36 37 39
2.183112e-001 -3.953577e-001 -2.355932e+000 66 65 63
2.283587e-001 -4.009104e-001 -2.380809e+000 67 66 64
-1.995061e-001 -3.678718e-001 -2.252922e+000 98 95 90
-4.530897e-003 8.348727e-002 -2.407385e+000 53 62 59
3.995147e-002 6.498465e-002 -2.405361e+000 140 149 148
4.322363e-002 3.305739e-002 -2.407655e+000 97 106 103
1.419530e-001 -2.524468e-002 -2.414192e+000 73 79 77
1.165360e-001 -3.950968e-002 -2.417343e+000 110 118 117
-4.041066e-001 -2.458949e-001 -2.220993e+000 74 76 71
-4.009569e-001 -2.443813e-001 -2.222812e+000 85 88 85
1.677632e-002 -4.906760e-001 -2.306042e+000 89 86 68
-4.210888e-002 -4.124942e-001 -2.306023e+000 113 113 105
3.349360e-001 -1.182090e-002 -2.456409e+000 28 27 24
1.033244e-001 -3.476500e-001 -2.350530e+000 81 81 79
2.309097e-002 3.435884e-001 -2.188170e+000 165 163 165
-1.667886e-002 2.292120e-001 -2.219033e+000 85 84 82
3.681112e-002 2.137894e-001 -2.246185e+000 161 161 163
-4.634256e-001 -1.419210e-001 -2.182102e+000 223 220 198
-4.762508e-001 -1.548456e-001 -2.178566e+000 225 218 212
-4.817403e-001 -1.595027e-001 -2.171501e+000 239 235 235
6.135709e-002 -3.031904e-001 -2.340601e+000 77 75 76
7.737195e-002 -3.309849e-001 -2.340300e+000 107 109 108
1.570662e-001 -4.250117e-001 -2.365257e+000 94 98 102
-1.919260e-001 -3.522703e-001 -2.235224e+000 134 131 124
-1.744855e-001 -3.721440e-001 -2.257864e+000 83 81 81
6.521325e-002 -3.176465e-001 -2.340356e+000 128 131 130
6.428389e-003 1.639794e-001 -2.236479e+000 116 109 107
-1.179419e-001 -3.870915e-001 -2.274283e+000 57 56 55
4.153322e-001 -1.370038e-001 -2.233267e+000 129 130 137
4.114433e-001 -1.445392e-001 -2.237016e+000 170 177 190
2.167177e-001 -1.547755e-001 -2.279632e+000 173 171 187
4.172926e-001 -1.498489e-001 -2.235701e+000 190 193 198
2.010965e-001 -1.588366e-001 -2.276891e+000 238 233 239
2.109433e-001 -1.658837e-001 -2.273267e+000 170 166 172
-4.305037e-001 -2.614327e-001 -2.204450e+000 150 151 143
1.898302e-001 -3.886728e-001 -2.361905e+000 40 42 36
1.887452e-001 -3.985529e-001 -2.368214e+000 33 35 31
1.979896e-001 -1.620835e-001 -2.283835e+000 247 243 239
2.002916e-001 -1.639866e-001 -2.277745e+000 255 251 255
2.055617e-001 -1.787560e-001 -2.284334e+000 158 157 163
-4.511858e-001 -2.635331e-001 -2.189492e+000 143 142 149
-7.733856e-003 3.456420e-001 -2.148300e+000 234 231 236
4.789470e-001 1.724393e-001 -2.371819e+000 125 130 134
4.889379e-001 1.682917e-001 -2.372397e+000 110 113 118
4.364163e-001 1.025785e-001 -2.377359e+000 134 137 145
-3.278859e-002 2.934699e-001 -2.138448e+000 85 80 75
-3.987048e-002 3.604478e-001 -2.130750e+000 196 184 202
-5.297033e-002 3.575809e-001 -2.122554e+000 250 248 252
-4.759825e-002 3.577331e-001 -2.125349e+000 188 183 199
-2.781371e-002 3.627374e-001 -2.141227e+000 157 147 164
-2.692006e-002 3.580274e-001 -2.136450e+000 233 227 240
-5.528046e-002 3.513610e-001 -2.124535e+000 159 148 169
-3.853132e-002 3.503570e-001 -2.132662e+000 213 202 202
-2.005090e-002 3.533165e-001 -2.136188e+000 222 214 212
-5.512670e-002 3.397942e-001 -2.124149e+000 244 238 245
-1.441632e-002 3.461956e-001 -2.141483e+000 189 184 194
-6.455803e-002 3.289466e-001 -2.117548e+000 197 196 200
5.619879e-001 1.812959e-002 -2.387320e+000 101 111 113
-2.216782e-001 -1.383054e-001 -2.170047e+000 132 138 140
3.110730e-001 -2.925475e-001 -2.352705e+000 130 131 123
2.836629e-001 -3.136088e-001 -2.348064e+000 164 166 154
-2.152514e-002 -3.780721e-001 -2.291251e+000 107 107 108
1.715514e-001 -4.085985e-001 -2.366048e+000 132 134 133
6.671312e-002 -4.704358e-001 -2.334712e+000 86 90 83
5.855622e-001 -2.008753e-001 -2.438673e+000 44 45 45
-9.719427e-002 1.204407e+000 -4.671054e+000 60 51 49
-2.062336e-001 1.177879e+000 -4.645253e+000 32 32 23
-7.541099e-001 1.020526e+000 -4.350232e+000 46 35 28
-7.303392e-001 1.029884e+000 -4.389812e+000 38 28 28
-6.297527e-001 1.032622e+000 -4.350907e+000 127 117 114
-7.987285e-002 1.196572e+000 -4.674758e+000 37 29 31
-7.366822e-001 1.011291e+000 -4.333785e+000 86 77 68
-6.676569e-001 1.017766e+000 -4.331806e+000 81 73 68
-6.944704e-001 1.011174e+000 -4.334630e+000 120 111 98
-6.589065e-001 1.022240e+000 -4.364482e+000 46 38 35
-1.934981e-001 1.155820e+000 -4.615288e+000 107 108 102
-6.623541e-001 1.013817e+000 -4.342707e+000 117 109 105
-5.487550e-001 1.042990e+000 -4.402958e+000 161 153 137
-5.677139e-001 1.028200e+000 -4.354641e+000 148 135 127
-2.074840e-001 1.148648e+000 -4.616732e+000 121 120 116
-1.553454e-001 1.149803e+000 -4.597693e+000 66 61 55
-7.057510e-001 9.956787e-001 -4.316631e+000 39 32 24
-6.490748e-001 1.008985e+000 -4.334891e+000 135 128 119
-2.728902e-001 1.115001e+000 -4.561355e+000 25 17 9
-2.297372e-001 1.119090e+000 -4.545120e+000 38 41 19
-2.958637e-001 1.108667e+000 -4.557302e+000 164 157 129
-5.344413e-001 1.040225e+000 -4.428750e+000 91 81 73
-8.857843e-002 1.153998e+000 -4.627178e+000 80 72 62
-1.739313e-001 1.121901e+000 -4.566427e+000 106 101 97
-5.210127e-001 1.027996e+000 -4.408502e+000 49 40 31
-3.209537e-001 1.084692e+000 -4.508198e+000 91 83 79
-2.986805e-001 1.084071e+000 -4.493116e+000 85 81 74
-5.278383e-001 1.020829e+000 -4.406367e+000 108 100 91
-4.083995e-001 1.046355e+000 -4.432063e+000 32 23 16
-2.273857e-001 1.092816e+000 -4.516428e+000 148 138 118
-2.009545e-001 1.106718e+000 -4.552746e+000 162 144 132
-1.344781e-001 1.132149e+000 -4.618589e+000 73 69 64
-2.438781e-001 1.093534e+000 -4.537770e+000 39 30 17
-5.736408e-001 9.913482e-001 -4.343087e+000 99 88 87
-2.043090e-001 1.093927e+000 -4.529707e+000 111 93 77
-6.574485e-001 9.744018e-001 -4.327559e+000 108 94 83
-6.016514e-001 9.634324e-001 -4.270643e+000 68 51 48
-5.795239e-001 9.393494e-001 -4.191137e+000 157 143 131
-5.121851e-001 9.977483e-001 -4.380030e+000 109 102 95
-3.713070e-001 1.040689e+000 -4.459617e+000 107 102 98
-2.105171e-001 1.074089e+000 -4.513422e+000 53 49 41
-6.018699e-001 9.223680e-001 -4.177555e+000 92 83 79
-3.967721e-001 1.014885e+000 -4.435920e+000 25 20 20
-1.158633e-001 1.087613e+000 -4.562114e+000 70 67 62
-3.772066e-001 1.015819e+000 -4.436989e+000 87 82 79
-1.728271e+000 6.012656e-001 -3.536674e+000 94 93 73
-2.496401e-002 1.083597e+000 -4.544339e+000 43 29 30
-3.492580e-001 9.878565e-001 -4.382869e+000 144 144 134
-1.658750e-001 1.041382e+000 -4.483220e+000 141 137 127
-1.069193e-001 1.036303e+000 -4.421918e+000 109 105 97
-3.622394e-001 9.745812e-001 -4.374231e+000 121 125 111
-8.405131e-002 1.033092e+000 -4.441696e+000 57 52 49
-3.213513e-001 9.659477e-001 -4.360383e+000 95 87 83
-2.226697e-001 9.979589e-001 -4.419424e+000 63 59 52
-1.569832e+000 6.030811e-001 -3.578722e+000 99 76 67
-5.856891e-001 8.482527e-001 -4.055531e+000 83 73 70
-2.910641e-001 9.650999e-001 -4.359385e+000 136 136 129
-5.932454e-001 8.673576e-001 -4.148585e+000 36 31 31
-3.279893e-001 9.523688e-001 -4.335680e+000 164 158 141
-9.739460e-002 1.013294e+000 -4.438059e+000 53 45 40
-3.247576e-001 9.399843e-001 -4.302327e+000 100 93 69
-2.474203e-001 9.645729e-001 -4.383840e+000 61 59 47
-5.712563e-002 9.928735e-001 -4.391799e+000 77 69 63
-2.306134e-001 9.552253e-001 -4.362806e+000 135 129 123
-5.809331e-001 8.390645e-001 -4.106192e+000 109 99 88
-1.520134e-001 9.775234e-001 -4.407535e+000 85 81 70
-1.020198e-001 9.892014e-001 -4.417576e+000 125 120 116
-3.093899e-001 9.203777e-001 -4.303852e+000 43 39 30
-5.244084e-001 8.295705e-001 -4.091218e+000 89 85 85
-4.800479e-001 8.406378e-001 -4.117557e+000 57 43 32
-5.615561e-001 8.119652e-001 -4.054105e+000 103 96 82
-3.031334e-001 9.017526e-001 -4.273406e+000 35 27 25
-1.641017e+000 5.317826e-001 -3.507776e+000 53 42 33
-5.166296e-001 8.142869e-001 -4.057443e+000 90 82 71
-5.062588e-001 8.145795e-001 -4.056157e+000 69 60 55
-2.027301e-001 9.178298e-001 -4.302282e+000 67 63 52
-1.810658e-001 9.199741e-001 -4.318536e+000 84 73 54
-4.670481e-001 8.272767e-001 -4.131203e+000 155 136 126
-4.726889e-001 8.227424e-001 -4.118075e+000 33 25 18
-1.658606e+000 4.951216e-001 -3.443571e+000 134 114 106
-1.621829e+000 5.038744e-001 -3.465086e+000 68 47 44
-5.171507e-001 7.823000e-001 -4.037980e+000 84 78 74
-4.413828e-001 8.088661e-001 -4.100663e+000 178 160 139
-2.026317e-001 8.673816e-001 -4.202361e+000 85 65 55
-1.628644e-001 8.903752e-001 -4.280556e+000 91 87 79
-5.029099e-001 7.796303e-001 -4.039583e+000 26 18 16
-4.264236e-001 8.052314e-001 -4.095642e+000 128 105 73
1.004757e-001 9.203115e-001 -4.254993e+000 114 111 97
-4.588308e-001 7.922752e-001 -4.087763e+000 142 134 129
-1.579902e+000 4.838115e-001 -3.427073e+000 113 89 71
-1.893179e-001 8.411188e-001 -4.182804e+000 40 22 19
-1.281490e-001 8.590966e-001 -4.227826e+000 79 71 64
-4.521184e-001 7.714440e-001 -4.070762e+000 152 148 135
-4.695288e-001 7.348600e-001 -3.933018e+000 146 144 132
-6.384541e-002 8.540371e-001 -4.201892e+000 70 66 56
-4.464136e-001 7.269316e-001 -3.940142e+000 40 29 22
-1.088567e-001 8.175047e-001 -4.125530e+000 90 82 77
-9.598110e-002 8.320819e-001 -4.184499e+000 103 95 93
-4.379012e-002 8.175788e-001 -4.133961e+000 96 91 85
-1.385244e+000 4.424522e-001 -3.342643e+000 77 66 58
-1.044200e-001 8.050201e-001 -4.150195e+000 30 20 17
-4.097043e-001 7.103982e-001 -3.936620e+000 30 22 16
-1.233832e-001 8.002979e-001 -4.151448e+000 148 145 136
-4.026286e-001 7.217672e-001 -4.009658e+000 166 170 145
-6.703046e-002 8.064905e-001 -4.156502e+000 160 153 142
-1.658726e+000 3.819515e-001 -3.297551e+000 191 192 158
-1.350153e+000 4.328407e-001 -3.323534e+000 142 128 110
-2.493238e-001 7.564578e-001 -4.083424e+000 30 22 17
-1.622270e-001 7.713206e-001 -4.115789e+000 66 59 66
-1.348876e+000 4.180515e-001 -3.306227e+000 77 62 44
-1.358053e+000 4.232847e-001 -3.328752e+000 55 41 33
-1.376159e-001 7.675625e-001 -4.101881e+000 171 161 162
-1.612678e-001 7.637552e-001 -4.110323e+000 167 157 153
-3.526112e-002 7.833732e-001 -4.124456e+000 74 65 63
-4.188646e-001 6.760946e-001 -3.915425e+000 110 105 102
-8.440842e-002 7.720259e-001 -4.122711e+000 178 174 169
-8.039180e-002 7.586580e-001 -4.104761e+000 111 100 93
-7.176417e-002 7.592491e-001 -4.100485e+000 98 89 75
-1.373023e+000 4.020578e-001 -3.331244e+000 119 111 100
-1.435136e-001 7.300222e-001 -4.051403e+000 31 19 15
-1.168493e-001 7.309693e-001 -4.034415e+000 37 31 31
-1.343346e+000 3.976319e-001 -3.328462e+000 154 145 142
-1.556494e+000 3.339909e-001 -3.186101e+000 49 37 28
-1.348124e+000 3.819018e-001 -3.326425e+000 209 196 197
-1.371433e+000 3.559273e-001 -3.219027e+000 165 151 145
-1.354965e+000 3.778830e-001 -3.319164e+000 43 29 33
-1.543684e+000 3.186939e-001 -3.164352e+000 58 39 35
-1.360002e+000 3.518476e-001 -3.217838e+000 109 82 71
-1.350033e+000 3.466377e-001 -3.218138e+000 134 114 100
-1.364978e+000 3.573522e-001 -3.305432e+000 91 67 65
-5.744996e-002 7.026228e-001 -4.031670e+000 200 173 167
-1.465757e+000 3.147528e-001 -3.201387e+000 20 15 8
-1.569135e+000 2.923539e-001 -3.178283e+000 177 160 147
-1.341983e+000 3.307961e-001 -3.226144e+000 225 193 167
-1.545503e+000 2.834237e-001 -3.165828e+000 75 63 58
-1.480147e+000 2.890766e-001 -3.162337e+000 113 98 91
-1.326717e+000 3.150942e-001 -3.220612e+000 234 200 179
-1.345330e+000 3.101578e-001 -3.240811e+000 66 40 26
-1.332594e+000 3.152185e-001 -3.249981e+000 214 187 199
2.737831e-001 6.974733e-001 -4.055992e+000 37 34 28
2.769616e-001 5.723849e-001 -3.898558e+000 113 110 103
3.077839e-001 5.744306e-001 -3.909918e+000 91 87 78
3.233332e-001 5.724582e-001 -3.901942e+000 56 53 47
3.351421e-001 5.667650e-001 -3.907063e+000 68 68 60
3.741773e-001 5.583404e-001 -3.900265e+000 93 91 79
-1.134550e+000 3.785093e-002 -2.764623e+000 81 82 68
-1.074029e+000 4.852598e-002 -2.842450e+000 73 71 59
-1.114961e+000 1.275939e-002 -2.787622e+000 148 151 136
4.543256e-001 3.517035e-001 -3.603240e+000 44 42 38
6.234707e-001 2.588758e-001 -3.497468e+000 41 37 34
6.871097e-001 2.605972e-001 -3.506259e+000 43 39 36
7.024681e-001 2.048376e-001 -3.431466e+000 68 67 63
6.619021e-001 -1.745591e-001 -2.876328e+000 121 118 111
6.858284e-001 -2.092166e-001 -2.812246e+000 133 132 134
7.564337e-001 -1.935918e-001 -2.834706e+000 117 122 116
7.095243e-001 -2.103624e-001 -2.807336e+000 125 127 125
8.182210e-001 -1.914679e-001 -2.840487e+000 122 126 123
7.389312e-001 -2.247960e-001 -2.787435e+000 84 86 83
7.513913e-001 -2.222206e-001 -2.787398e+000 95 99 98
8.011130e-001 -2.369138e-001 -2.760951e+000 82 84 83
1.466331e-001 -3.741414e-001 -2.360161e+000 90 94 90
4.664827e-002 -4.032540e-001 -2.317287e+000 87 87 85
2.695553e-001 -3.564517e-001 -2.369035e+000 93 93 91
7.500341e-001 -2.679865e-001 -2.703914e+000 88 90 88
7.337543e-001 -2.751643e-001 -2.691196e+000 107 110 103
7.477159e-001 -2.875748e-001 -2.668791e+000 185 176 169
7.558008e-001 -2.921329e-001 -2.664657e+000 226 217 215
2.333697e-001 -4.075432e-001 -2.381541e+000 57 55 56
7.166114e-001 -3.158737e-001 -2.618020e+000 131 133 130
6.294413e-001 -3.350907e-001 -2.541292e+000 73 75 74
5.353896e-001 -3.907416e-001 -2.473181e+000 82 81 77
7.296103e-001 -3.616877e-001 -2.534621e+000 100 103 100
7.197180e-001 -3.646076e-001 -2.527895e+000 95 97 92
5.361046e-001 -4.127047e-001 -2.431327e+000 59 58 55
5.441909e-001 -4.147174e-001 -2.434764e+000 88 89 84
5.126622e-001 -4.270857e-001 -2.397660e+000 72 67 64
6.591712e-001 -4.062366e-001 -2.453362e+000 91 96 90
-2.440031e-001 1.090930e+000 -4.530984e+000 30 20 8
-5.873946e-001 9.733332e-001 -4.319003e+000 52 35 26
-5.816367e-001 9.757558e-001 -4.334439e+000 133 122 109
-1.271610e-001 1.005869e+000 -4.435342e+000 115 111 107
-1.633160e-001 9.838618e-001 -4.415811e+000 143 138 133
-3.059650e-001 9.381344e-001 -4.321395e+000 144 136 130
-2.050226e-001 9.499138e-001 -4.355905e+000 38 34 33
-4.919498e-001 8.445754e-001 -4.102148e+000 113 101 90
-1.655315e+000 5.387628e-001 -3.507516e+000 118 115 94
-5.347528e-001 8.146305e-001 -4.039690e+000 124 116 107
-1.572324e+000 4.869773e-001 -3.452039e+000 96 65 61
-1.459256e+000 4.824518e-001 -3.419718e+000 64 51 42
-1.290883e+000 4.418079e-001 -3.311481e+000 105 100 94
-1.648298e+000 3.908625e-001 -3.326814e+000 76 56 56
-5.258809e-002 7.977630e-001 -4.128617e+000 50 43 35
-1.648367e+000 3.723104e-001 -3.294359e+000 93 86 59
-1.464571e+000 3.844919e-001 -3.309316e+000 194 160 142
5.660720e-001 2.753321e-001 -3.511793e+000 84 79 73
-1.156714e-001 -3.817876e-001 -2.253616e+000 63 62 61
8.391681e-001 -2.495571e-001 -2.743691e+000 137 128 108
-2.345514e-001 1.046635e+000 -4.466926e+000 83 77 65
-2.176741e-001 1.028259e+000 -4.459092e+000 23 19 16
-3.139376e-001 9.744339e-001 -4.356434e+000 26 23 14
-2.508118e-001 9.851841e-001 -4.353649e+000 148 145 136
-1.806939e-001 9.930876e-001 -4.421150e+000 131 123 121
-5.180785e-001 8.641225e-001 -4.111190e+000 89 82 72
-1.076559e-001 9.860803e-001 -4.394568e+000 147 140 132
-2.253651e-001 9.269535e-001 -4.234727e+000 32 29 21
-1.551493e-001 9.856930e-001 -4.420893e+000 131 126 120
-3.051548e-001 9.341346e-001 -4.328477e+000 162 150 138
-1.502499e+000 4.915435e-001 -3.435900e+000 73 48 41
-1.400634e+000 4.719820e-001 -3.369849e+000 95 77 74
-3.159578e-001 7.845968e-001 -4.085156e+000 93 74 68
-1.586326e+000 4.118516e-001 -3.301913e+000 212 179 157
-3.145952e-001 6.935727e-001 -3.962870e+000 56 52 50
-1.393165e+000 3.696749e-001 -3.316696e+000 100 86 84
-1.383577e+000 3.440421e-001 -3.265959e+000 95 84 72
-1.129535e+000 4.033661e-002 -2.791054e+000 64 60 53
-1.555909e-001 -3.827917e-001 -2.279119e+000 81 81 81
-4.735162e-002 -4.025012e-001 -2.290252e+000 67 66 64
1.699040e-001 -3.848370e-001 -2.359917e+000 65 67 66
7.258901e-001 -3.158163e-001 -2.615019e+000 58 61 62
-1.418821e+000 3.747752e-001 -3.271442e+000 57 46 41
1.798863e-001 -3.771624e-001 -2.353574e+000 36 34 39
2.207636e-001 -3.942625e-001 -2.350593e+000 81 80 76
-1.617983e+000 4.747609e-001 -3.393896e+000 68 40 39
-2.224797e-002 3.797270e-001 -2.143170e+000 225 223 233
-1.207276e-002 3.682644e-001 -2.148798e+000 226 222 224
-5.662667e-002 2.721111e-001 -2.139959e+000 140 138 139
5.960647e-001 6.107861e-002 -2.430247e+000 98 102 106
5.818964e-001 4.646068e-002 -2.418992e+000 105 106 102
5.909867e-001 3.617138e-002 -2.425904e+000 103 108 114
5.835496e-001 -6.248218e-003 -2.425999e+000 86 90 92
5.716076e-001 2.531194e-002 -2.418381e+000 52 52 50
6.733798e-002 -4.142293e-001 -2.336901e+000 89 89 87
8.934115e-002 -4.164705e-001 -2.338628e+000 42 41 41
-3.648210e-002 3.811396e-001 -2.137638e+000 190 179 186
-2.584356e-002 3.719565e-001 -2.139914e+000 148 135 146
4.036476e-001 5.783002e-003 -2.433869e+000 68 72 67
2.002371e-001 -1.355804e-001 -2.276148e+000 228 226 225
2.485297e-001 -1.469602e-001 -2.309358e+000 162 163 179
2.382157e-001 -1.547941e-001 -2.298122e+000 155 152 169
2.215578e-001 -1.593028e-001 -2.281568e+000 191 189 198
2.301768e-001 -1.669186e-001 -2.288285e+000 144 142 157
1.942657e-001 -1.662995e-001 -2.263226e+000 219 214 213
2.439341e-001 -1.673960e-001 -2.299793e+000 198 199 206
2.590992e-001 -1.727991e-001 -2.312006e+000 234 238 241
1.974365e-001 -1.745178e-001 -2.263405e+000 211 211 214
2.078674e-001 -1.789033e-001 -2.266413e+000 169 168 175
-3.377408e-002 3.505185e-001 -2.133199e+000 254 250 253
3.357010e-001 1.609305e-001 -2.388062e+000 83 87 86
-1.538507e-001 -1.034584e-001 -2.223812e+000 199 196 204
-1.411454e-001 -1.050651e-001 -2.235487e+000 206 197 202
-1.391618e-001 -1.138187e-001 -2.233519e+000 206 200 204
-1.260634e-001 -1.321246e-001 -2.239050e+000 199 190 194
-1.195662e-001 -1.349273e-001 -2.244202e+000 216 209 210
-1.158887e-001 -1.401516e-001 -2.244453e+000 206 203 196
-1.248004e-001 -1.427509e-001 -2.238829e+000 174 170 172
-1.177215e-001 -1.460455e-001 -2.242187e+000 231 226 231
-9.859594e-002 -1.783137e-001 -2.250227e+000 163 160 165
2.199615e-001 -1.708741e-001 -2.278697e+000 198 193 200
-9.753696e-002 -2.055839e-001 -2.246273e+000 212 207 213
-9.752741e-002 -2.202731e-001 -2.241388e+000 204 206 210
-7.930060e-002 -2.420438e-001 -2.253794e+000 185 187 201
-6.453070e-002 -2.632179e-001 -2.260152e+000 174 172 177
4.455027e-001 -3.023396e-001 -2.311980e+000 65 67 64
-1.129603e-001 -1.831837e-001 -2.240185e+000 144 141 150
-9.255128e-002 -1.957334e-001 -2.251139e+000 241 237 239
-1.094247e-001 -1.566610e-001 -2.243809e+000 253 251 252
-8.648662e-002 -2.087601e-001 -2.253937e+000 238 239 238
-9.323477e-002 -2.179642e-001 -2.243258e+000 215 215 219
-6.973604e-002 -2.539363e-001 -2.256099e+000 198 191 199
-1.383007e-001 -1.255879e-001 -2.240941e+000 240 234 238
-2.411044e-001 -8.929201e-002 -2.171335e+000 113 119 121
4.967977e-001 -2.930542e-001 -2.345501e+000 97 99 93
4.856221e-001 -2.983196e-001 -2.333715e+000 112 114 108
1.390247e-001 -3.907152e-001 -2.352838e+000 74 78 77
-2.171154e-001 -4.834688e-001 -2.309265e+000 82 84 81
-3.647545e-002 3.712026e-001 -2.140812e+000 190 181 204
-7.298597e-002 3.056313e-001 -2.119342e+000 103 106 111
-6.830907e-002 2.581319e-001 -2.145587e+000 153 153 151
-2.457655e-001 -9.132418e-002 -2.168298e+000 133 139 139
-2.230371e-001 -1.391190e-001 -2.172020e+000 118 124 124
5.616628e-001 1.828451e-002 -2.388094e+000 96 105 110
1.426677e-001 -7.976731e-002 -2.294730e+000 113 121 123
-6.464243e-002 -2.580657e-001 -2.260736e+000 173 175 178
-5.937996e-002 -2.735657e-001 -2.261884e+000 191 191 193
5.863266e-001 -2.018825e-001 -2.442456e+000 48 49 44
6.150973e-001 -2.281625e-001 -2.470937e+000 44 44 43
1.139023e-001 -3.565762e-001 -2.353136e+000 100 102 99
6.046709e-001 -2.620220e-001 -2.486998e+000 98 97 92
6.695839e-001 -2.483491e-001 -2.489604e+000 82 83 79
2.079512e-001 -3.913713e-001 -2.360476e+000 52 51 47
-2.580311e-001 -5.219650e-001 -2.240162e+000 108 110 105
1.545016e-001 -4.396497e-001 -2.371883e+000 94 98 101
1.689178e-001 -4.508133e-001 -2.370908e+000 93 95 90
1.684571e-001 -3.515193e-001 -2.341989e+000 135 135 132
2.469322e-001 -1.561055e-001 -2.308411e+000 154 147 168
2.376462e-001 -1.683971e-001 -2.291650e+000 255 254 255
2.151804e-001 -1.772321e-001 -2.275499e+000 188 186 194
2.407566e-001 -1.762760e-001 -2.294878e+000 180 176 186
2.646698e-001 -1.826800e-001 -2.315383e+000 224 223 233
2.984810e-001 -2.576833e-001 -2.344933e+000 81 82 77
2.035526e-001 -1.704270e-001 -2.260720e+000 164 151 161
-6.789243e-001 1.106506e+000 -4.458179e+000 86 69 53
-5.971141e-001 1.100143e+000 -4.459357e+000 83 74 66
-6.792136e-001 1.065187e+000 -4.419548e+000 105 91 78
-7.486744e-001 1.032123e+000 -4.363166e+000 108 100 84
-6.383865e-001 1.068040e+000 -4.435295e+000 105 96 87
-7.592048e-001 1.010468e+000 -4.338957e+000 63 53 43
-6.466066e-001 1.033587e+000 -4.349682e+000 22 12 4
-7.348768e-001 9.958225e-001 -4.298850e+000 102 91 81
-7.105835e-001 1.011909e+000 -4.332021e+000 115 102 91
-7.571785e-001 9.772819e-001 -4.274807e+000 123 111 97
-5.394650e-001 1.062947e+000 -4.449809e+000 77 67 58
-3.450150e-001 1.122473e+000 -4.538424e+000 172 166 153
-5.327176e-001 1.029912e+000 -4.377515e+000 33 21 14
-5.970156e-001 1.010938e+000 -4.372389e+000 101 94 86
-5.521099e-001 1.021225e+000 -4.374702e+000 68 60 41
-3.239826e-001 1.103859e+000 -4.521914e+000 101 96 74
-4.100182e-001 1.052915e+000 -4.432925e+000 114 105 95
-3.008560e-001 1.094843e+000 -4.522685e+000 107 97 92
-5.980595e-001 9.536413e-001 -4.245542e+000 147 131 125
-2.069437e+000 4.253501e-001 -3.246100e+000 87 83 72
-6.615964e-001 9.107444e-001 -4.151392e+000 136 132 108
-5.434064e-001 9.801428e-001 -4.331835e+000 134 117 117
-5.785721e-001 9.289360e-001 -4.183408e+000 157 145 143
-6.654742e-001 9.117398e-001 -4.177595e+000 107 101 83
-3.253170e-001 1.040817e+000 -4.457253e+000 88 84 75
-4.566688e-001 9.827479e-001 -4.339767e+000 108 99 92
-5.860173e-001 9.000475e-001 -4.143679e+000 83 68 49
-4.770450e-001 9.698148e-001 -4.324942e+000 41 33 34
-3.791306e-001 1.011227e+000 -4.421322e+000 87 82 77
-5.045233e-001 9.548007e-001 -4.305045e+000 172 157 150
-4.691745e-001 9.632264e-001 -4.334547e+000 133 124 116
-4.437098e-001 9.642885e-001 -4.310310e+000 115 105 99
-5.858304e-001 8.992937e-001 -4.172237e+000 115 99 89
-2.094547e+000 3.944129e-001 -3.273255e+000 92 88 78
-1.884629e+000 4.705703e-001 -3.446955e+000 93 83 71
-1.945810e+000 4.476038e-001 -3.398393e+000 147 131 99
-2.698221e-001 1.022746e+000 -4.445470e+000 147 134 128
-5.662319e-001 8.871005e-001 -4.156064e+000 62 54 44
-2.795538e-001 1.009397e+000 -4.419822e+000 105 97 88
