ply
format ascii 1.0
element face 0
property list uchar int vertex_indices
element vertex 863
property float x
property float y
property float z
property uchar diffuse_red
property uchar diffuse_green
property uchar diffuse_blue
end_header
-2.674340e-001 -4.075017e-001 -2.255033e+000 115 106 91
2.311004e-001 -3.662674e-001 -2.346515e+000 133 133 130
-1.902114e-001 -4.153897e-001 -2.274925e+000 112 103 104
1.826813e-002 -3.962117e-001 -2.305350e+000 77 78 75
-1.920342e-001 -4.243477e-001 -2.290714e+000 121 115 112
1.802677e-001 -3.908709e-001 -2.363813e+000 131 131 127
2.325785e-001 -3.888733e-001 -2.351618e+000 133 125 123
2.363101e-001 -3.939306e-001 -2.356733e+000 118 115 106
1.904327e-001 -4.010707e-001 -2.364817e+000 53 51 52
2.019911e-001 -4.012501e-001 -2.364122e+000 133 132 127
2.089190e-001 -4.014339e-001 -2.365770e+000 102 99 92
1.969435e-001 -4.061955e-001 -2.364787e+000 78 79 72
-4.685394e-002 -4.361990e-001 -2.324898e+000 116 111 108
6.635480e-002 -4.234242e-001 -2.348244e+000 100 90 92
1.893766e-001 -4.110195e-001 -2.364730e+000 80 81 76
2.266811e-001 -4.095582e-001 -2.369080e+000 102 102 92
2.474169e-001 -4.096106e-001 -2.373771e+000 67 64 59
2.069262e-001 -4.167553e-001 -2.367057e+000 82 83 78
1.608448e-001 -4.234479e-001 -2.357147e+000 135 135 136
1.158863e-001 -4.374009e-001 -2.355217e+000 104 104 102
1.694834e-001 -4.319199e-001 -2.362618e+000 142 142 141
1.209535e-001 -4.432430e-001 -2.360459e+000 100 99 97
2.496872e-001 -4.318840e-001 -2.376821e+000 112 113 113
2.592850e-001 -4.304461e-001 -2.383890e+000 117 122 126
2.246147e-001 -4.376590e-001 -2.363311e+000 88 87 86
2.646517e-001 -4.324518e-001 -2.386634e+000 88 92 95
2.406092e-001 -4.535458e-001 -2.368880e+000 85 88 81
-3.126192e-002 2.952291e-001 -2.142078e+000 90 86 82
3.295329e-001 -2.799620e-001 -2.355629e+000 80 83 76
-3.744639e-002 -3.722652e-001 -2.281515e+000 78 76 74
1.916343e-001 -3.908396e-001 -2.361719e+000 27 24 21
1.565448e-001 -4.412959e-001 -2.369816e+000 104 108 101
-9.295606e-003 2.314252e-001 -2.210698e+000 69 59 57
2.538814e-001 -1.593142e-001 -2.308125e+000 216 211 218
2.600449e-001 -1.971786e-001 -2.303979e+000 231 230 236
3.132087e-001 -2.262952e-001 -2.342030e+000 70 75 71
5.901385e-001 -2.021225e-001 -2.442537e+000 41 41 39
2.103765e-001 -2.973611e-001 -2.302568e+000 66 61 55
-1.819336e-001 -3.528719e-001 -2.226055e+000 58 52 52
2.010106e-001 -3.337273e-001 -2.341691e+000 50 45 41
7.806240e-003 -3.905592e-001 -2.302683e+000 109 104 100
-1.890443e-001 -4.138678e-001 -2.277439e+000 120 112 110
4.366418e-002 -4.281415e-001 -2.333764e+000 153 143 141
1.793783e-001 -4.168525e-001 -2.358245e+000 69 65 64
-7.331094e-002 -2.398053e-001 -2.255005e+000 252 253 247
-1.711121e-001 -3.710496e-001 -2.257219e+000 104 94 92
-1.922556e-001 -3.950072e-001 -2.257380e+000 63 57 62
2.124694e-002 2.676337e-001 -2.208191e+000 127 118 113
-1.754501e-001 -3.271355e-001 -2.219941e+000 91 90 88
-1.921847e-001 -3.576298e-001 -2.239264e+000 73 66 61
-1.349428e-001 1.037106e+000 -4.483375e+000 125 121 111
-4.114609e-001 9.955652e-001 -4.411958e+000 85 78 75
-2.360133e-001 1.026892e+000 -4.477533e+000 103 101 86
-1.132772e-001 1.032193e+000 -4.463294e+000 93 86 83
-3.200262e-001 9.948616e-001 -4.390758e+000 51 40 38
-1.753909e-001 1.032086e+000 -4.495214e+000 70 63 58
-2.571580e-001 9.851074e-001 -4.378027e+000 154 147 136
-3.543053e-001 9.809594e-001 -4.394927e+000 62 59 49
-2.342970e-001 9.889346e-001 -4.399767e+000 22 20 13
-1.185464e-001 1.005498e+000 -4.431201e+000 92 89 93
-3.854439e-001 9.717918e-001 -4.380971e+000 145 141 129
-2.569652e-001 9.818011e-001 -4.389949e+000 133 130 117
-1.105061e-001 1.001048e+000 -4.420848e+000 83 79 80
-7.747957e-002 1.011413e+000 -4.460275e+000 76 70 57
-3.549935e-001 9.666064e-001 -4.384328e+000 36 32 30
-1.973056e-001 9.920362e-001 -4.437885e+000 52 47 44
-3.650827e-001 9.524481e-001 -4.352763e+000 126 123 109
-2.072291e-001 9.799731e-001 -4.414938e+000 156 151 144
-3.515361e-001 9.409946e-001 -4.318774e+000 163 160 142
-2.424373e-001 9.615653e-001 -4.378600e+000 43 39 36
-1.858736e-001 9.654573e-001 -4.385034e+000 126 123 106
-3.329126e-001 9.248756e-001 -4.314864e+000 79 72 72
-2.272060e-001 9.381492e-001 -4.353125e+000 146 141 139
-2.548600e-001 9.337652e-001 -4.347108e+000 51 43 39
-1.796204e-001 9.427976e-001 -4.359161e+000 59 51 52
-1.685082e-001 9.295329e-001 -4.343401e+000 161 152 129
-2.131153e-001 9.108036e-001 -4.301818e+000 147 142 134
-2.089757e-001 8.910732e-001 -4.247326e+000 97 91 89
-1.112813e-001 8.997770e-001 -4.255970e+000 115 108 98
1.255703e-001 9.153926e-001 -4.246637e+000 80 75 66
-9.934294e-002 9.028901e-001 -4.279905e+000 110 101 95
-1.873867e-001 8.889016e-001 -4.267206e+000 108 101 89
-9.552300e-002 8.915554e-001 -4.257668e+000 70 61 52
-1.249737e-001 8.884575e-001 -4.285938e+000 33 27 29
-9.942757e-002 8.844710e-001 -4.249739e+000 92 85 72
1.187487e-001 8.973025e-001 -4.229109e+000 102 93 88
-1.655301e-001 8.718402e-001 -4.252158e+000 73 68 56
-1.171062e-001 8.773596e-001 -4.268931e+000 125 122 113
1.312005e-001 8.901511e-001 -4.220567e+000 79 70 63
1.196250e-001 8.794234e-001 -4.207717e+000 101 93 81
1.083900e-001 8.764530e-001 -4.217189e+000 22 13 9
-1.556828e-001 8.394956e-001 -4.199420e+000 25 15 8
-5.218521e-002 8.523847e-001 -4.227657e+000 163 156 150
1.379754e-002 8.491010e-001 -4.199280e+000 74 64 60
1.199381e-001 8.651234e-001 -4.214825e+000 37 33 30
-5.779401e-002 8.424653e-001 -4.207816e+000 95 91 82
-2.844590e-002 8.336027e-001 -4.193985e+000 99 95 86
1.946787e-002 8.344570e-001 -4.192436e+000 58 51 48
-5.477273e-002 8.174709e-001 -4.176198e+000 170 165 162
-4.929594e-003 8.116632e-001 -4.152974e+000 68 65 60
-2.961715e-002 8.152562e-001 -4.193457e+000 62 58 55
3.319677e-002 8.176654e-001 -4.162904e+000 8 7 5
-7.504356e-002 7.982787e-001 -4.157088e+000 157 155 143
-4.367832e-002 8.021557e-001 -4.154458e+000 42 37 33
-3.197467e-002 8.031351e-001 -4.161340e+000 94 91 82
-2.155332e-002 8.010497e-001 -4.162589e+000 80 76 74
-4.632715e-002 7.925368e-001 -4.151337e+000 118 112 117
1.601581e-003 7.931424e-001 -4.135713e+000 81 78 73
-6.287024e-002 7.877067e-001 -4.145695e+000 149 146 143
-2.887182e-002 7.887231e-001 -4.162040e+000 128 123 119
-9.076607e-005 7.707478e-001 -4.093788e+000 99 95 86
-5.500368e-002 7.582946e-001 -4.101033e+000 131 128 111
-3.596129e-002 7.523256e-001 -4.083632e+000 130 127 107
-1.442452e-002 7.602008e-001 -4.111674e+000 82 77 73
1.839373e-002 7.490121e-001 -4.087419e+000 101 97 93
4.722000e-003 7.456347e-001 -4.081760e+000 24 20 17
2.570770e-002 7.431882e-001 -4.072340e+000 69 68 61
-2.692361e-003 7.388325e-001 -4.083054e+000 125 121 118
1.401006e-002 7.336444e-001 -4.064893e+000 137 134 128
4.799864e-002 7.256191e-001 -4.051629e+000 87 82 79
-7.919509e-002 7.041484e-001 -4.032215e+000 119 102 89
4.143218e-002 7.072083e-001 -4.036026e+000 116 114 110
-2.616477e-002 3.548611e-001 -2.131697e+000 221 218 225
-2.890574e-002 3.524465e-001 -2.129494e+000 188 178 176
1.439543e-001 6.866380e-001 -4.007816e+000 64 61 56
4.664616e-002 6.763299e-001 -4.012732e+000 132 128 127
2.152223e-002 6.683303e-001 -3.994374e+000 156 153 147
8.361152e-003 6.602703e-001 -3.970727e+000 122 113 107
6.418003e-002 6.673018e-001 -3.992334e+000 65 61 57
8.618391e-002 6.638706e-001 -3.976824e+000 55 54 47
5.579064e-002 6.588196e-001 -3.985887e+000 88 85 78
-1.098355e+000 4.585758e-001 -3.407965e+000 82 78 66
6.131397e-002 6.325604e-001 -3.913338e+000 57 53 50
2.111798e-001 6.534503e-001 -4.011716e+000 56 52 41
-1.301047e+000 4.085109e-001 -3.325322e+000 87 80 69
3.904906e-002 6.208236e-001 -3.929122e+000 54 49 46
2.291576e-001 6.456073e-001 -4.002571e+000 37 48 30
2.311329e-001 6.345152e-001 -3.984558e+000 146 148 134
-1.385152e+000 3.851029e-001 -3.332421e+000 60 50 42
2.165234e-001 6.236422e-001 -3.943324e+000 73 69 63
2.348163e-001 6.258164e-001 -3.969712e+000 144 143 124
-1.318413e+000 3.781950e-001 -3.313909e+000 57 46 35
-1.273969e+000 3.811517e-001 -3.310339e+000 89 81 68
3.744117e-001 6.405987e-001 -4.038550e+000 142 128 128
-1.343652e+000 3.757985e-001 -3.323573e+000 170 147 131
1.726309e-001 6.063053e-001 -3.963316e+000 127 124 117
-1.291380e+000 3.733768e-001 -3.315545e+000 154 145 128
2.346298e-001 5.965754e-001 -3.928477e+000 100 95 89
-1.344547e+000 3.623763e-001 -3.326164e+000 168 150 135
4.020942e-001 6.273253e-001 -4.040846e+000 21 14 17
-1.290423e+000 3.579636e-001 -3.304501e+000 141 133 114
4.114298e-001 6.249649e-001 -4.040220e+000 147 139 149
-1.352102e+000 3.544464e-001 -3.323443e+000 146 132 118
-1.309941e+000 3.543545e-001 -3.308568e+000 134 123 94
2.287478e-001 5.802538e-001 -3.902142e+000 91 86 82
-1.324628e+000 3.503038e-001 -3.312613e+000 230 213 182
-1.124058e+000 3.775427e-001 -3.386851e+000 86 78 66
1.653928e-002 2.956206e-001 -2.177384e+000 124 129 132
-1.264583e+000 3.078005e-001 -3.286940e+000 97 87 78
-1.267640e+000 2.510481e-001 -3.203760e+000 100 70 68
-1.039496e+000 7.374063e-002 -2.883389e+000 93 95 79
-1.020203e+000 5.409235e-002 -2.883473e+000 93 95 81
6.740531e-001 1.595664e-001 -3.397399e+000 60 61 54
-5.062278e-001 -2.349311e-001 -2.181667e+000 126 123 132
8.144852e-001 -1.361632e-001 -2.943049e+000 118 124 118
-4.521654e-001 -2.735138e-001 -2.176065e+000 243 240 253
7.175975e-001 -1.689962e-001 -2.882788e+000 64 63 60
7.139245e-001 -1.791531e-001 -2.870017e+000 104 106 101
7.341483e-001 -1.932321e-001 -2.837007e+000 108 113 107
8.036452e-001 -2.125248e-001 -2.810390e+000 118 121 117
8.558809e-001 -2.260995e-001 -2.771749e+000 123 136 107
7.588254e-001 -2.428589e-001 -2.766951e+000 120 126 122
8.329997e-001 -2.336447e-001 -2.772715e+000 154 165 135
8.455316e-001 -2.437821e-001 -2.752089e+000 103 111 75
8.581170e-001 -2.518027e-001 -2.738145e+000 88 88 74
6.988090e-002 -3.174553e-001 -2.331939e+000 115 117 114
5.085101e-002 -3.244964e-001 -2.327029e+000 121 130 126
-2.481742e-001 -3.680886e-001 -2.229084e+000 75 71 60
-1.937527e-001 -3.647937e-001 -2.240177e+000 108 105 100
6.586428e-002 -3.436364e-001 -2.328499e+000 128 134 134
-1.912623e-001 -3.812956e-001 -2.255966e+000 138 138 129
-1.243825e-001 -3.746788e-001 -2.256351e+000 120 118 119
1.014935e-001 -3.522518e-001 -2.347053e+000 73 75 70
-1.732736e-001 -3.954253e-001 -2.265627e+000 110 109 105
-3.194916e-002 -3.804963e-001 -2.305434e+000 108 110 108
7.369508e-001 -3.167569e-001 -2.627319e+000 47 49 46
7.315656e-001 -3.215460e-001 -2.621564e+000 33 37 36
1.238974e-001 -3.739685e-001 -2.352175e+000 135 138 135
2.818589e-001 -3.623935e-001 -2.373289e+000 105 104 98
1.777943e-002 -3.958214e-001 -2.306948e+000 78 79 74
1.454287e-001 -3.847317e-001 -2.356853e+000 70 72 67
1.621606e-001 -3.826925e-001 -2.365272e+000 75 77 74
1.930662e-001 -3.921637e-001 -2.363185e+000 65 65 63
6.948829e-001 -3.568296e-001 -2.549082e+000 62 64 59
2.081000e-001 -4.012167e-001 -2.366487e+000 90 89 88
1.593410e-001 -4.128493e-001 -2.355171e+000 63 65 64
1.906392e-001 -4.117037e-001 -2.362386e+000 82 82 78
1.703047e-001 -4.490303e-001 -2.373433e+000 67 67 65
2.619769e-001 -4.413817e-001 -2.387182e+000 50 48 49
6.116267e-001 -4.089720e-001 -2.451060e+000 80 82 77
-1.398288e-001 9.786414e-001 -4.404483e+000 134 131 123
-2.404354e-001 9.350398e-001 -4.344212e+000 147 144 140
-8.872188e-002 8.702946e-001 -4.239130e+000 45 41 38
-6.858136e-002 8.727914e-001 -4.247300e+000 128 123 127
2.355107e-002 6.984279e-001 -4.024161e+000 103 98 97
-1.329781e+000 3.703747e-001 -3.336858e+000 205 192 156
7.252970e-002 -4.137167e-001 -2.328134e+000 59 60 55
-1.526539e-001 9.502149e-001 -4.390078e+000 135 130 124
-8.583084e-002 8.740201e-001 -4.270330e+000 139 136 130
-4.505852e-002 8.008538e-001 -4.149405e+000 40 35 29
2.692239e-002 7.912682e-001 -4.107248e+000 134 130 127
3.524262e-002 7.232572e-001 -3.966555e+000 106 104 98
-1.305334e+000 4.288774e-001 -3.302594e+000 132 121 109
-9.302093e-002 -2.215060e-001 -2.247711e+000 177 179 183
1.855148e-002 -3.964526e-001 -2.316163e+000 88 89 84
3.025301e-002 -4.041267e-001 -2.323625e+000 58 58 58
1.841573e-001 -3.880012e-001 -2.368622e+000 33 33 34
2.139077e-001 -3.953195e-001 -2.354175e+000 38 38 38
-1.199857e-001 8.629719e-001 -4.185436e+000 136 133 125
-7.649748e-002 7.662196e-001 -4.118287e+000 183 180 174
-1.961772e-001 -3.975006e-001 -2.265090e+000 51 47 47
1.749614e-001 -4.214423e-001 -2.363790e+000 147 152 146
5.717060e-002 -2.672412e-001 -2.320488e+000 36 37 39
2.210073e-001 -3.968942e-001 -2.353522e+000 66 65 63
2.311026e-001 -4.026520e-001 -2.378437e+000 67 66 64
-1.994728e-001 -3.676440e-001 -2.249497e+000 98 95 90
-2.272153e-003 8.591197e-002 -2.407519e+000 53 62 59
4.254172e-002 6.714895e-002 -2.405272e+000 140 149 148
4.575244e-002 3.494243e-002 -2.407442e+000 97 106 103
1.451198e-001 -2.410161e-002 -2.413533e+000 73 79 77
1.194550e-001 -3.843405e-002 -2.416718e+000 110 118 117
-4.051932e-001 -2.441743e-001 -2.217847e+000 74 76 71
-4.020300e-001 -2.426708e-001 -2.219703e+000 85 88 85
1.782570e-002 -4.921574e-001 -2.302851e+000 89 86 68
-4.127324e-002 -4.133449e-001 -2.303132e+000 113 113 105
3.395403e-001 -1.120665e-002 -2.455725e+000 28 27 24
1.053581e-001 -3.485898e-001 -2.348188e+000 81 81 79
2.655268e-002 3.483594e-001 -2.187750e+000 165 163 165
-1.379725e-002 2.331689e-001 -2.218210e+000 85 84 82
3.999244e-002 2.173811e-001 -2.245525e+000 161 161 163
-4.644747e-001 -1.391388e-001 -2.178949e+000 223 220 198
-4.774106e-001 -1.520977e-001 -2.175322e+000 225 218 212
-4.829382e-001 -1.567376e-001 -2.168185e+000 239 235 235
6.324525e-002 -3.036274e-001 -2.338301e+000 77 75 76
7.929650e-002 -3.316501e-001 -2.337893e+000 107 109 108
1.592666e-001 -4.266264e-001 -2.362684e+000 94 98 102
-1.917052e-001 -3.518839e-001 -2.231610e+000 134 131 124
-1.742418e-001 -3.720379e-001 -2.254359e+000 83 81 81
6.708998e-002 -3.181902e-001 -2.337994e+000 128 131 130
9.289560e-003 1.673531e-001 -2.235478e+000 116 109 107
-1.173833e-001 -3.873127e-001 -2.270895e+000 57 56 55
4.200455e-001 -1.366039e-001 -2.231610e+000 129 130 137
4.161130e-001 -1.441989e-001 -2.235336e+000 170 177 190
2.201367e-001 -1.542758e-001 -2.277729e+000 173 171 187
4.219830e-001 -1.495509e-001 -2.234006e+000 190 193 198
2.044054e-001 -1.583055e-001 -2.274902e+000 238 233 239
2.143047e-001 -1.654132e-001 -2.271261e+000 170 166 172
-4.313655e-001 -2.595726e-001 -2.200464e+000 150 151 143
1.923407e-001 -3.901386e-001 -2.359537e+000 40 42 36
1.912130e-001 -4.001174e-001 -2.365848e+000 33 35 31
2.012593e-001 -1.616053e-001 -2.281882e+000 247 243 239
2.035818e-001 -1.634929e-001 -2.275735e+000 255 251 255
2.088391e-001 -1.784115e-001 -2.282320e+000 158 157 163
-4.515329e-001 -2.616964e-001 -2.183716e+000 143 142 149
-4.403932e-003 3.506692e-001 -2.147550e+000 234 231 236
4.848651e-001 1.740446e-001 -2.372346e+000 125 130 134
4.949106e-001 1.698415e-001 -2.372921e+000 110 113 118
4.418829e-001 1.037930e-001 -2.377530e+000 134 137 145
-2.974586e-002 2.982589e-001 -2.137344e+000 85 80 75
-3.667360e-002 3.657365e-001 -2.129841e+000 196 184 202
-4.986142e-002 3.629210e-001 -2.121566e+000 250 248 252
-4.445563e-002 3.630480e-001 -2.124385e+000 188 183 199
-2.453970e-002 3.679633e-001 -2.140409e+000 157 147 164
-2.364871e-002 3.632418e-001 -2.135582e+000 233 227 240
-5.220603e-002 3.566574e-001 -2.123530e+000 159 148 169
-3.535559e-002 3.555678e-001 -2.131724e+000 213 202 202
-1.674738e-002 3.584838e-001 -2.135308e+000 222 214 212
-5.208375e-002 3.450163e-001 -2.123093e+000 244 238 245
-1.109932e-002 3.512780e-001 -2.140612e+000 189 184 194
-6.160261e-002 3.341513e-001 -2.116393e+000 197 196 200
5.680628e-001 1.838837e-002 -2.387292e+000 101 111 113
-2.210985e-001 -1.360901e-001 -2.167006e+000 132 138 140
3.146828e-001 -2.936050e-001 -2.350812e+000 130 131 123
2.870332e-001 -3.147203e-001 -2.346025e+000 164 166 154
-2.034958e-002 -3.785738e-001 -2.288201e+000 107 107 108
1.738857e-001 -4.101528e-001 -2.363592e+000 132 134 133
6.820342e-002 -4.719887e-001 -2.331643e+000 86 90 83
5.911494e-001 -2.024054e-001 -2.438147e+000 44 45 45
-9.449915e-002 1.203934e+000 -4.690166e+000 60 51 49
-2.042025e-001 1.177560e+000 -4.663620e+000 32 32 23
-7.553732e-001 1.021741e+000 -4.364399e+000 46 35 28
-7.314752e-001 1.030924e+000 -4.404319e+000 38 28 28
-6.302645e-001 1.033623e+000 -4.365442e+000 127 117 114
-7.709610e-002 1.195993e+000 -4.693914e+000 37 29 31
-7.380211e-001 1.012559e+000 -4.348254e+000 86 77 68
-6.684116e-001 1.018847e+000 -4.346064e+000 81 73 68
-6.953966e-001 1.012261e+000 -4.348801e+000 120 111 98
-6.596223e-001 1.023180e+000 -4.378969e+000 46 38 35
-1.914143e-001 1.155461e+000 -4.633386e+000 107 108 102
-6.630947e-001 1.014811e+000 -4.357020e+000 117 109 105
-5.488136e-001 1.043636e+000 -4.418066e+000 161 153 137
-5.678774e-001 1.029013e+000 -4.369332e+000 148 135 127
-2.054967e-001 1.148263e+000 -4.634743e+000 121 120 116
-1.530332e-001 1.149400e+000 -4.615769e+000 66 61 55
-7.067673e-001 9.967763e-001 -4.330595e+000 39 32 24
-6.499230e-001 1.010039e+000 -4.349615e+000 135 128 119
-2.713081e-001 1.114781e+000 -4.578605e+000 25 17 9
-2.278786e-001 1.118876e+000 -4.562429e+000 38 41 19
-2.944248e-001 1.108472e+000 -4.574415e+000 164 157 129
-5.345574e-001 1.040767e+000 -4.444347e+000 91 81 73
-8.589636e-002 1.153356e+000 -4.645726e+000 80 72 62
-1.717600e-001 1.121491e+000 -4.584079e+000 106 101 97
-5.210577e-001 1.028518e+000 -4.423940e+000 49 40 31
-3.197597e-001 1.084686e+000 -4.525069e+000 91 83 79
-2.972575e-001 1.084009e+000 -4.509689e+000 85 81 74
-5.278283e-001 1.021268e+000 -4.421434e+000 108 100 91
-4.076500e-001 1.046568e+000 -4.447733e+000 32 23 16
-2.255430e-001 1.092549e+000 -4.533410e+000 148 138 118
-1.989599e-001 1.106324e+000 -4.570126e+000 162 144 132
-1.321016e-001 1.131490e+000 -4.636776e+000 73 69 64
-2.421495e-001 1.093212e+000 -4.554837e+000 39 30 17
-5.739168e-001 9.919908e-001 -4.357510e+000 99 88 87
-2.023406e-001 1.093558e+000 -4.546855e+000 111 93 77
-6.582458e-001 9.752030e-001 -4.341607e+000 108 94 83
-6.020992e-001 9.642902e-001 -4.284426e+000 68 51 48
-5.798325e-001 9.403612e-001 -4.204374e+000 157 143 131
-5.122181e-001 9.981758e-001 -4.395146e+000 109 102 95
-3.703753e-001 1.040655e+000 -4.475527e+000 107 102 98
-2.086115e-001 1.073673e+000 -4.530327e+000 53 49 41
-6.023401e-001 9.233855e-001 -4.190575e+000 92 83 79
-3.960269e-001 1.014848e+000 -4.451473e+000 25 20 20
-1.134172e-001 1.086863e+000 -4.579729e+000 70 67 62
-3.764278e-001 1.015791e+000 -4.452857e+000 87 82 79
-1.734012e+000 6.056217e-001 -3.540521e+000 94 93 73
-2.197493e-002 1.082708e+000 -4.562147e+000 43 29 30
-3.482487e-001 9.877732e-001 -4.398085e+000 144 144 134
-1.637503e-001 1.040784e+000 -4.499892e+000 141 137 127
-1.044022e-001 1.035817e+000 -4.438363e+000 109 105 97
-3.613296e-001 9.744803e-001 -4.389289e+000 121 125 111
-8.142734e-002 1.032447e+000 -4.458338e+000 57 52 49
-3.202739e-001 9.657994e-001 -4.375628e+000 95 87 83
-2.209149e-001 9.974840e-001 -4.435263e+000 63 59 52
-1.575268e+000 6.069560e-001 -3.583644e+000 99 76 67
-5.861492e-001 8.493134e-001 -4.067509e+000 83 73 70
-2.898034e-001 9.648797e-001 -4.374691e+000 136 136 129
-5.937787e-001 8.681361e-001 -4.161194e+000 36 31 31
-3.269606e-001 9.522565e-001 -4.350681e+000 164 158 141
-9.488499e-002 1.012559e+000 -4.454505e+000 53 45 40
-3.236403e-001 9.398945e-001 -4.316854e+000 100 93 69
-2.458575e-001 9.640957e-001 -4.399209e+000 61 59 47
-5.437919e-002 9.921200e-001 -4.407963e+000 77 69 63
-2.290101e-001 9.547821e-001 -4.378228e+000 135 129 123
-5.814268e-001 8.398247e-001 -4.118436e+000 109 99 88
-1.498777e-001 9.768080e-001 -4.423409e+000 85 81 70
-9.956920e-002 9.884056e-001 -4.433731e+000 125 120 116
-3.082282e-001 9.201172e-001 -4.318328e+000 43 39 30
-5.245778e-001 8.302028e-001 -4.103457e+000 89 85 85
-4.799447e-001 8.411144e-001 -4.130104e+000 57 43 32
-5.619646e-001 8.127439e-001 -4.065965e+000 103 96 82
-3.019516e-001 9.014939e-001 -4.287616e+000 35 27 25
-1.646708e+000 5.357010e-001 -3.511577e+000 53 42 33
-5.167630e-001 8.149560e-001 -4.069424e+000 90 82 71
-5.063280e-001 8.152312e-001 -4.068155e+000 69 60 55
-2.009837e-001 9.173417e-001 -4.317181e+000 67 63 52
-1.791972e-001 9.193764e-001 -4.333603e+000 84 73 54
-4.669109e-001 8.275741e-001 -4.143797e+000 155 136 126
-4.725847e-001 8.230835e-001 -4.130552e+000 33 25 18
-1.664297e+000 4.991455e-001 -3.446683e+000 134 114 106
-1.627463e+000 5.077790e-001 -3.468570e+000 68 47 44
-5.174398e-001 7.828772e-001 -4.049930e+000 84 78 74
-4.411126e-001 8.091223e-001 -4.113045e+000 178 160 139
-2.008619e-001 8.669804e-001 -4.216203e+000 85 65 55
-1.609146e-001 8.897057e-001 -4.295260e+000 91 87 79
-5.030335e-001 7.801255e-001 -4.051326e+000 26 18 16
-4.260641e-001 8.054493e-001 -4.107999e+000 128 105 73
1.041321e-001 9.193321e-001 -4.270382e+000 114 111 97
-4.586958e-001 7.925255e-001 -4.099949e+000 142 134 129
-1.585410e+000 4.876787e-001 -3.430418e+000 113 89 71
-1.875127e-001 8.406027e-001 -4.196426e+000 40 22 19
-1.259726e-001 8.583499e-001 -4.241982e+000 79 71 64
-4.519800e-001 7.716211e-001 -4.082761e+000 152 148 135
-4.694743e-001 7.354698e-001 -3.943978e+000 146 144 132
-6.130271e-002 8.532462e-001 -4.216153e+000 70 66 56
-4.462431e-001 7.274011e-001 -3.951152e+000 40 29 22
-1.065673e-001 8.168995e-001 -4.138872e+000 90 82 77
-9.363624e-002 8.312776e-001 -4.198333e+000 103 95 93
-4.111417e-002 8.167815e-001 -4.147529e+000 96 91 85
-1.390140e+000 4.460274e-001 -3.346134e+000 77 66 58
-1.021844e-001 8.042260e-001 -4.163746e+000 30 20 17
-4.093562e-001 7.106896e-001 -3.947626e+000 30 22 16
-1.212743e-001 7.995112e-001 -4.164933e+000 148 145 136
-4.023343e-001 7.217888e-001 -4.021371e+000 166 170 145
-6.454169e-002 8.055735e-001 -4.170095e+000 160 153 142
-1.664383e+000 3.859732e-001 -3.299152e+000 191 192 158
-1.354925e+000 4.363651e-001 -3.327007e+000 142 128 110
-2.479949e-001 7.559832e-001 -4.095857e+000 30 22 17
-1.603589e-001 7.705837e-001 -4.128694e+000 66 59 66
-1.353655e+000 4.215609e-001 -3.309526e+000 77 62 44
-1.362886e+000 4.267467e-001 -3.332183e+000 55 41 33
-1.355967e-001 7.668052e-001 -4.114746e+000 171 161 162
-1.594081e-001 7.629917e-001 -4.123162e+000 167 157 153
-3.260265e-002 7.823715e-001 -4.137804e+000 74 65 63
-4.186362e-001 6.762820e-001 -3.926112e+000 110 105 102
-8.207586e-002 7.710763e-001 -4.135870e+000 178 174 169
-7.804759e-002 7.576906e-001 -4.117740e+000 111 100 93
-6.936188e-002 7.582841e-001 -4.113461e+000 98 89 75
-1.377973e+000 4.054162e-001 -3.334538e+000 119 111 100
-1.415744e-001 7.292616e-001 -4.063750e+000 31 19 15
-1.147534e-001 7.302334e-001 -4.046810e+000 37 31 31
-1.348203e+000 4.009093e-001 -3.331846e+000 154 145 142
-1.561817e+000 3.380022e-001 -3.187240e+000 49 37 28
-1.353038e+000 3.851050e-001 -3.329706e+000 209 196 197
-1.376299e+000 3.595022e-001 -3.221371e+000 165 151 145
-1.359902e+000 3.811097e-001 -3.322352e+000 43 29 33
-1.548971e+000 3.226848e-001 -3.165336e+000 58 39 35
-1.364842e+000 3.553775e-001 -3.220206e+000 109 82 71
-1.354858e+000 3.501125e-001 -3.220531e+000 134 114 100
-1.369981e+000 3.605398e-001 -3.308395e+000 91 67 65
-5.503157e-002 7.015613e-001 -4.043959e+000 200 173 167
-1.470965e+000 3.183800e-001 -3.202994e+000 20 15 8
-1.575775e+000 2.962848e-001 -3.180507e+000 177 160 147
-1.346840e+000 3.341226e-001 -3.228556e+000 225 193 167
-1.550888e+000 2.872121e-001 -3.166650e+000 75 63 58
-1.485371e+000 2.927607e-001 -3.163488e+000 113 98 91
-1.331560e+000 3.183159e-001 -3.222986e+000 234 200 179
-1.350284e+000 3.133040e-001 -3.243219e+000 66 40 26
-1.337507e+000 3.183245e-001 -3.252527e+000 214 187 199
2.781750e-001 6.954824e-001 -4.069412e+000 37 34 28
2.812344e-001 5.702503e-001 -3.910263e+000 113 110 103
3.122371e-001 5.721856e-001 -3.921817e+000 91 87 78
3.278849e-001 5.701984e-001 -3.913827e+000 56 53 47
3.397476e-001 5.644156e-001 -3.918992e+000 68 68 60
3.790067e-001 5.558725e-001 -3.912248e+000 93 91 79
-1.138615e+000 4.097077e-002 -2.763439e+000 81 82 68
-1.078017e+000 5.119409e-002 -2.842105e+000 73 71 59
-1.119070e+000 1.556930e-002 -2.786560e+000 148 151 136
4.594347e-001 3.489857e-001 -3.612451e+000 44 42 38
6.294955e-001 2.555842e-001 -3.506147e+000 41 37 34
6.935255e-001 2.571184e-001 -3.515292e+000 43 39 36
7.089142e-001 2.012743e-001 -3.439765e+000 68 67 63
6.676335e-001 -1.781015e-001 -2.879043e+000 121 118 111
6.916775e-001 -2.127741e-001 -2.814468e+000 133 132 134
7.627533e-001 -1.973412e-001 -2.837375e+000 117 122 116
7.155256e-001 -2.139716e-001 -2.809594e+000 125 127 125
8.249359e-001 -1.954056e-001 -2.843437e+000 122 126 123
7.450992e-001 -2.284983e-001 -2.789600e+000 84 86 83
7.576466e-001 -2.259391e-001 -2.789608e+000 95 99 98
8.076704e-001 -2.407585e-001 -2.763108e+000 82 84 83
1.489031e-001 -3.753610e-001 -2.357770e+000 90 94 90
4.821593e-002 -4.042132e-001 -2.314346e+000 87 87 85
2.726806e-001 -3.579125e-001 -2.366960e+000 93 93 91
7.562334e-001 -2.716420e-001 -2.705381e+000 88 90 88
7.398418e-001 -2.787655e-001 -2.692497e+000 107 110 103
7.538793e-001 -2.912012e-001 -2.669939e+000 185 176 169
7.620064e-001 -2.957972e-001 -2.665794e+000 226 217 215
2.361087e-001 -4.093137e-001 -2.379268e+000 57 55 56
7.225796e-001 -3.193471e-001 -2.618400e+000 131 133 130
6.348321e-001 -3.381369e-001 -2.541072e+000 73 75 74
5.401042e-001 -3.935886e-001 -2.471980e+000 82 81 77
7.355776e-001 -3.651716e-001 -2.534524e+000 100 103 100
7.256192e-001 -3.680538e-001 -2.527716e+000 95 97 92
5.407739e-001 -4.155381e-001 -2.429877e+000 59 58 55
5.489044e-001 -4.176019e-001 -2.433344e+000 88 89 84
5.171687e-001 -4.298028e-001 -2.395886e+000 72 67 64
6.646356e-001 -4.094629e-001 -2.452358e+000 91 96 90
-2.422731e-001 1.090620e+000 -4.547988e+000 30 20 8
-5.877754e-001 9.740020e-001 -4.333161e+000 52 35 26
-5.819902e-001 9.763566e-001 -4.348714e+000 133 122 109
-1.248410e-001 1.005162e+000 -4.451631e+000 115 111 107
-1.612400e-001 9.831764e-001 -4.431736e+000 143 138 133
-3.047562e-001 9.379021e-001 -4.336078e+000 144 136 130
-2.032120e-001 9.493662e-001 -4.371129e+000 38 34 33
-4.918919e-001 8.451743e-001 -4.114585e+000 113 101 90
-1.661020e+000 5.427506e-001 -3.511275e+000 118 115 94
-5.349813e-001 8.154267e-001 -4.051532e+000 124 116 107
-1.577855e+000 4.907386e-001 -3.455604e+000 96 65 61
-1.464415e+000 4.860866e-001 -3.423571e+000 64 51 42
-1.295396e+000 4.453069e-001 -3.315156e+000 105 100 94
-1.653986e+000 3.947841e-001 -3.328715e+000 76 56 56
-5.000412e-002 7.968784e-001 -4.142017e+000 50 43 35
-1.654023e+000 3.762694e-001 -3.295948e+000 93 86 59
-1.469810e+000 3.880482e-001 -3.311975e+000 194 160 142
5.717686e-001 2.722321e-001 -3.520421e+000 84 79 73
-1.150488e-001 -3.818756e-001 -2.250103e+000 63 62 61
8.459525e-001 -2.535231e-001 -2.745825e+000 137 128 108
-2.328100e-001 1.046300e+000 -4.483322e+000 83 77 65
-2.158634e-001 1.027798e+000 -4.475379e+000 23 19 16
-3.127265e-001 9.743006e-001 -4.371511e+000 26 23 14
-2.492004e-001 9.849893e-001 -4.368944e+000 148 145 136
-1.787056e-001 9.924790e-001 -4.437107e+000 131 123 121
-5.181406e-001 8.648700e-001 -4.123726e+000 89 82 72
-1.052273e-001 9.853813e-001 -4.410549e+000 147 140 132
-2.236252e-001 9.268515e-001 -4.249027e+000 32 29 21
-1.530256e-001 9.849785e-001 -4.436886e+000 131 126 120
-3.039573e-001 9.338426e-001 -4.343187e+000 162 150 138
-1.507791e+000 4.952533e-001 -3.439703e+000 73 48 41
-1.405541e+000 4.756461e-001 -3.373578e+000 95 77 74
-3.149699e-001 7.844603e-001 -4.097593e+000 93 74 68
-1.591770e+000 4.158652e-001 -3.304048e+000 212 179 157
-3.137200e-001 6.933987e-001 -3.974131e+000 56 52 50
-1.398244e+000 3.729505e-001 -3.319661e+000 100 86 84
-1.388605e+000 3.473675e-001 -3.268516e+000 95 84 72
-1.133633e+000 4.333718e-002 -2.790088e+000 64 60 53
-1.552323e-001 -3.828867e-001 -2.275670e+000 81 81 81
-4.636906e-002 -4.030785e-001 -2.286985e+000 67 66 64
1.722964e-001 -3.861914e-001 -2.357520e+000 65 67 66
7.318875e-001 -3.193314e-001 -2.615616e+000 58 61 62
-1.423877e+000 3.783381e-001 -3.274008e+000 57 46 41
1.823791e-001 -3.784571e-001 -2.351166e+000 36 34 39
2.234825e-001 -3.957683e-001 -2.348156e+000 81 80 76
-1.623531e+000 4.787997e-001 -3.396783e+000 68 40 39
-1.897120e-002 3.850612e-001 -2.142587e+000 225 223 233
-8.755396e-003 3.734686e-001 -2.148199e+000 226 222 224
-5.381824e-002 2.768169e-001 -2.138758e+000 140 138 139
6.024034e-001 6.137922e-002 -2.430807e+000 98 102 106
5.881256e-001 4.674989e-002 -2.419384e+000 105 106 102
5.972417e-001 3.633469e-002 -2.426305e+000 103 108 114
5.896537e-001 -6.351899e-003 -2.426196e+000 86 90 92
5.777214e-001 2.548559e-002 -2.418651e+000 52 52 50
6.898696e-002 -4.154142e-001 -2.334069e+000 89 89 87
9.112987e-002 -4.177350e-001 -2.335829e+000 42 41 41
-3.329345e-002 3.864818e-001 -2.137007e+000 190 179 186
-2.261456e-002 3.772106e-001 -2.139272e+000 148 135 146
4.084568e-001 6.147632e-003 -2.434119e+000 68 72 67
2.036014e-001 -1.348890e-001 -2.274296e+000 228 226 225
2.521389e-001 -1.466335e-001 -2.307750e+000 162 163 179
2.417524e-001 -1.544379e-001 -2.296386e+000 155 152 169
2.249969e-001 -1.588508e-001 -2.279671e+000 191 189 198
2.336436e-001 -1.665742e-001 -2.286414e+000 144 142 157
1.975337e-001 -1.657343e-001 -2.261130e+000 219 214 213
2.474751e-001 -1.671472e-001 -2.298017e+000 198 199 206
2.627078e-001 -1.726875e-001 -2.310317e+000 234 238 241
2.007050e-001 -1.740164e-001 -2.261276e+000 211 211 214
2.111892e-001 -1.784715e-001 -2.264300e+000 169 168 175
-3.062877e-002 3.556944e-001 -2.132383e+000 254 250 253
3.404638e-001 1.627565e-001 -2.388661e+000 83 87 86
-1.527628e-001 -1.014413e-001 -2.221335e+000 199 196 204
-1.399878e-001 -1.031458e-001 -2.233099e+000 206 197 202
-1.380140e-001 -1.119546e-001 -2.231082e+000 206 200 204
-1.248841e-001 -1.304440e-001 -2.236586e+000 199 190 194
-1.183566e-001 -1.333062e-001 -2.241771e+000 216 209 210
-1.146688e-001 -1.385767e-001 -2.242004e+000 206 203 196
-1.236411e-001 -1.411450e-001 -2.236317e+000 174 170 172
-1.165278e-001 -1.444956e-001 -2.239694e+000 231 226 231
-9.736924e-002 -1.770702e-001 -2.247668e+000 163 160 165
2.233647e-001 -1.705136e-001 -2.276744e+000 198 193 200
-9.637381e-002 -2.045110e-001 -2.243568e+000 212 207 213
-9.640039e-002 -2.192779e-001 -2.238585e+000 204 206 210
-7.812013e-002 -2.413019e-001 -2.250999e+000 185 187 201
-6.331303e-002 -2.626882e-001 -2.257324e+000 174 172 177
4.500686e-001 -3.035918e-001 -2.309913e+000 65 67 64
-1.118349e-001 -1.818899e-001 -2.237520e+000 144 141 150
-9.133318e-002 -1.946285e-001 -2.248519e+000 241 237 239
-1.082071e-001 -1.552120e-001 -2.241292e+000 253 251 252
-8.526494e-002 -2.077729e-001 -2.251284e+000 238 239 238
-9.207590e-002 -2.169727e-001 -2.240486e+000 215 215 219
-6.852707e-002 -2.533108e-001 -2.253282e+000 198 191 199
-1.371835e-001 -1.238411e-001 -2.238499e+000 240 234 238
-2.405094e-001 -8.670177e-002 -2.168463e+000 113 119 121
5.016373e-001 -2.945640e-001 -2.343835e+000 97 99 93
4.903847e-001 -2.997833e-001 -2.331935e+000 112 114 108
1.412029e-001 -3.920027e-001 -2.350308e+000 74 78 77
-2.174570e-001 -4.841940e-001 -2.305459e+000 82 84 81
-3.329369e-002 3.765161e-001 -2.140119e+000 190 181 204
-7.020181e-002 3.106932e-001 -2.118168e+000 103 106 111
-6.564303e-002 2.627416e-001 -2.144376e+000 153 153 151
-2.451690e-001 -8.872661e-002 -2.165364e+000 133 139 139
-2.224196e-001 -1.369213e-001 -2.168925e+000 118 124 124
5.677162e-001 1.854867e-002 -2.388145e+000 96 105 110
1.457399e-001 -7.867574e-002 -2.293225e+000 113 121 123
-6.338347e-002 -2.574960e-001 -2.257917e+000 173 175 178
-5.812552e-002 -2.731195e-001 -2.259007e+000 191 191 193
5.919038e-001 -2.034319e-001 -2.441951e+000 48 49 44
6.207650e-001 -2.300968e-001 -2.470553e+000 44 44 43
1.160160e-001 -3.575565e-001 -2.350707e+000 100 102 99
6.101653e-001 -2.642340e-001 -2.486556e+000 98 97 92
6.755319e-001 -2.506538e-001 -2.489362e+000 82 83 79
2.105938e-001 -3.928652e-001 -2.358066e+000 52 51 47
-2.585517e-001 -5.224928e-001 -2.235553e+000 108 110 105
1.566580e-001 -4.413798e-001 -2.369245e+000 94 98 101
1.711419e-001 -4.526519e-001 -2.368233e+000 93 95 90
1.709550e-001 -3.525581e-001 -2.339590e+000 135 135 132
2.505222e-001 -1.558470e-001 -2.306762e+000 154 147 168
2.411562e-001 -1.681217e-001 -2.289825e+000 255 254 255
2.185264e-001 -1.768865e-001 -2.273502e+000 188 186 194
2.442629e-001 -1.760777e-001 -2.293045e+000 180 176 186
2.683028e-001 -1.826809e-001 -2.313687e+000 224 223 233
3.021131e-001 -2.584215e-001 -2.343147e+000 81 82 77
2.068530e-001 -1.699364e-001 -2.258638e+000 164 151 161
-6.800064e-001 1.107781e+000 -4.474387e+000 86 69 53
-5.976733e-001 1.101161e+000 -4.475647e+000 83 74 66
-6.803438e-001 1.066350e+000 -4.435277e+000 105 91 78
-7.502660e-001 1.033484e+000 -4.378249e+000 108 100 84
-6.392679e-001 1.069054e+000 -4.451213e+000 105 96 87
-7.608880e-001 1.011816e+000 -4.353757e+000 63 53 43
-6.475277e-001 1.034767e+000 -4.364844e+000 22 12 4
-7.364073e-001 9.971954e-001 -4.313372e+000 102 91 81
-7.119499e-001 1.013180e+000 -4.346867e+000 115 102 91
-7.588738e-001 9.786935e-001 -4.289052e+000 123 111 97
-5.397210e-001 1.063610e+000 -4.465921e+000 77 67 58
-3.440359e-001 1.122709e+000 -4.555900e+000 172 166 153
-5.329406e-001 1.030662e+000 -4.393012e+000 33 21 14
-5.976777e-001 1.011735e+000 -4.387630e+000 101 94 86
-5.524696e-001 1.021974e+000 -4.390095e+000 68 60 41
-3.228926e-001 1.103989e+000 -4.539217e+000 101 96 74
-4.094731e-001 1.053282e+000 -4.449141e+000 114 105 95
-2.996412e-001 1.094853e+000 -4.539995e+000 107 97 92
-5.987563e-001 9.546327e-001 -4.259714e+000 147 131 125
-2.080147e+000 4.311401e-001 -3.249606e+000 87 83 72
-6.627327e-001 9.120376e-001 -4.164695e+000 136 132 108
-5.437589e-001 9.807832e-001 -4.346749e+000 134 117 117
-5.791527e-001 9.299974e-001 -4.197111e+000 157 145 143
-6.666469e-001 9.129240e-001 -4.191045e+000 107 101 83
-3.242894e-001 1.040792e+000 -4.473734e+000 88 84 75
-4.564735e-001 9.831601e-001 -4.354896e+000 108 99 92
-5.866795e-001 9.011141e-001 -4.156981e+000 83 68 49
-4.769916e-001 9.702543e-001 -4.339868e+000 41 33 34
-3.784588e-001 1.011280e+000 -4.437269e+000 87 82 77
-5.046586e-001 9.552947e-001 -4.319717e+000 172 157 150
-4.690909e-001 9.635571e-001 -4.349505e+000 133 124 116
-4.434464e-001 9.646769e-001 -4.325178e+000 115 105 99
-5.865108e-001 9.002223e-001 -4.185699e+000 115 99 89
-2.105574e+000 3.999453e-001 -3.276796e+000 92 88 78
-1.894439e+000 4.752793e-001 -3.452408e+000 93 83 71
-1.955990e+000 4.525354e-001 -3.403307e+000 147 131 99
-2.684763e-001 1.022520e+000 -4.461898e+000 147 134 128
-5.668000e-001 8.879718e-001 -4.169394e+000 62 54 44
-2.782706e-001 1.009215e+000 -4.435981e+000 105 97 88
-4.545659e-001 9.475259e-001 -4.331529e+000 52 44 31
-2.080989e+000 3.896337e-001 -3.281740e+000 97 94 77
-1.817548e+000 4.680929e-001 -3.437134e+000 97 89 79
-3.777726e-001 9.547125e-001 -4.347995e+000 51 41 29
-1.877394e+000 4.447621e-001 -3.413568e+000 86 75 69
-3.655440e-001 9.590186e-001 -4.365173e+000 85 77 81
-1.819195e+000 4.438507e-001 -3.400448e+000 93 78 78
-4.328363e-001 9.259366e-001 -4.319141e+000 22 13 12
-3.198487e-001 9.530334e-001 -4.355085e+000 60 53 43
-1.873126e+000 4.236783e-001 -3.393647e+000 88 67 66
-4.803580e-001 8.494662e-001 -4.114382e+000 110 91 79
-1.796083e+000 4.321509e-001 -3.392688e+000 189 171 171
-2.907740e-001 9.432697e-001 -4.354418e+000 137 123 112
-5.406204e-001 8.288314e-001 -4.114180e+000 62 52 44
-1.996127e+000 3.249919e-001 -3.130729e+000 76 74 56
-4.068495e-001 8.943943e-001 -4.268653e+000 117 107 100
-1.794641e+000 4.099925e-001 -3.349502e+000 120 87 77
-2.872868e-001 9.170943e-001 -4.306029e+000 137 125 109
-2.729371e-001 9.273906e-001 -4.337822e+000 69 52 33
-2.044067e-001 9.501756e-001 -4.375579e+000 34 25 30
-1.971361e+000 3.433475e-001 -3.236561e+000 61 41 31
-1.822739e+000 3.976185e-001 -3.339714e+000 111 82 83
-2.059514e-001 9.504560e-001 -4.397713e+000 32 22 26
-2.077699e-001 9.366561e-001 -4.342529e+000 84 73 65
-1.931864e-001 9.338049e-001 -4.340486e+000 159 148 142
-1.836161e-001 9.468916e-001 -4.378397e+000 61 50 48
-1.766199e+000 3.926021e-001 -3.319954e+000 128 92 87
-2.994225e-001 9.042722e-001 -4.317096e+000 104 92 89
-2.044368e+000 2.879276e-001 -3.100981e+000 55 59 40
-2.003537e+000 2.920498e-001 -3.104000e+000 54 52 29
-5.523125e-001 7.827701e-001 -4.040212e+000 52 42 42
-5.339438e-001 7.920797e-001 -4.070456e+000 21 15 17
-2.023134e+000 2.935169e-001 -3.134186e+000 124 124 92
-2.799133e-001 8.933777e-001 -4.305160e+000 137 120 118
-1.448946e-001 9.217313e-001 -4.323998e+000 157 148 132
-1.993209e+000 2.763051e-001 -3.118312e+000 73 67 64
-1.533044e-001 8.994290e-001 -4.302869e+000 62 50 57
-1.992138e+000 2.690129e-001 -3.092206e+000 123 121 106
-1.800800e+000 3.270207e-001 -3.193551e+000 120 97 96
-1.075171e-001 9.018868e-001 -4.283639e+000 134 123 113
-1.700828e-001 8.843661e-001 -4.270436e+000 101 92 84
-1.381137e-001 8.908168e-001 -4.296430e+000 126 115 114
-1.244998e-001 8.899189e-001 -4.282332e+000 47 35 37
-5.144710e-001 7.269359e-001 -3.932767e+000 85 73 66
-1.619690e-001 8.764515e-001 -4.273811e+000 92 81 67
-1.454159e-001 8.735977e-001 -4.270817e+000 107 104 83
-1.492920e-001 8.667742e-001 -4.257048e+000 168 158 141
-1.833800e+000 2.782563e-001 -3.119321e+000 53 42 19
-9.162976e-002 8.721808e-001 -4.248711e+000 112 108 107
-4.909768e-001 6.886303e-001 -3.864148e+000 61 52 45
-4.547332e-001 7.074646e-001 -3.914279e+000 76 68 62
-1.168901e-001 8.391571e-001 -4.206489e+000 62 53 51
-1.875216e+000 2.283805e-001 -3.038494e+000 197 177 162
-4.211201e-001 7.261922e-001 -4.017844e+000 133 125 119
-4.969886e-001 6.615626e-001 -3.797956e+000 113 107 83
-4.886577e-001 6.770006e-001 -3.872075e+000 19 14 10
-1.579550e+000 2.898660e-001 -3.152093e+000 149 127 127
-9.764833e-002 8.200204e-001 -4.211268e+000 111 103 98
-9.273540e-002 8.080513e-001 -4.163379e+000 121 114 106
-1.597508e+000 2.715276e-001 -3.124212e+000 108 91 81
-4.588157e-001 6.653092e-001 -3.895427e+000 31 22 18
-1.576473e+000 2.760463e-001 -3.137914e+000 104 91 82
-9.720153e-002 7.989429e-001 -4.170387e+000 68 64 56
-1.740536e+000 2.366037e-001 -3.115035e+000 128 116 111
-1.633102e+000 2.610869e-001 -3.130614e+000 232 211 210
-1.627677e+000 2.484137e-001 -3.089828e+000 203 180 187
-1.716038e+000 2.036186e-001 -2.989160e+000 63 51 37
-1.615312e-001 7.531120e-001 -4.095203e+000 123 105 105
-1.766201e+000 1.840184e-001 -2.958236e+000 248 215 209
-1.410837e-001 7.589999e-001 -4.120850e+000 179 168 157
-3.609909e-001 6.709963e-001 -4.012283e+000 53 65 40
-1.393193e-001 7.288432e-001 -4.085967e+000 159 151 146
-1.141178e-001 6.957125e-001 -4.037851e+000 124 114 104
1.509139e-001 5.236768e-001 -3.847277e+000 77 75 66
1.911032e-001 4.778852e-001 -3.801533e+000 69 61 59
2.130433e-001 4.687496e-001 -3.795155e+000 33 28 22
2.021516e-001 4.344353e-001 -3.736024e+000 66 62 57
2.251117e-001 4.341056e-001 -3.770641e+000 73 67 51
2.580816e-001 4.218350e-001 -3.748647e+000 129 122 116
2.290291e-001 4.010072e-001 -3.743515e+000 67 64 58
2.571215e-001 4.059592e-001 -3.740832e+000 110 107 92
2.853363e-001 3.940096e-001 -3.700427e+000 92 88 79
3.232675e-001 3.649147e-001 -3.687913e+000 63 59 41
3.441452e-001 3.569479e-001 -3.683862e+000 40 34 24
2.469262e-001 3.239061e-001 -3.632684e+000 55 53 48
2.010961e-001 3.024421e-001 -3.628719e+000 86 78 76
3.218980e-001 3.319751e-001 -3.667120e+000 92 87 83
-1.176070e+000 -1.858885e-001 -2.574662e+000 62 57 51
-1.207382e+000 -2.083457e-001 -2.534053e+000 119 121 113
3.785758e-001 3.241679e-001 -3.606393e+000 64 58 52
3.132973e-001 2.945041e-001 -3.601943e+000 78 74 66
3.023110e-001 2.767933e-001 -3.584088e+000 45 42 38
3.877958e-001 2.792458e-001 -3.548297e+000 82 77 71
3.908772e-001 2.737415e-001 -3.540396e+000 69 64 58
3.872147e-001 2.525875e-001 -3.534113e+000 45 41 38
3.641384e-001 2.434470e-001 -3.536553e+000 46 43 36
4.394343e-001 2.622132e-001 -3.541095e+000 64 65 60
4.315955e-001 2.571155e-001 -3.543576e+000 69 68 64
4.544110e-001 2.612821e-001 -3.527416e+000 57 56 51
3.778610e-001 1.941105e-001 -3.515638e+000 42 41 37
4.084606e-001 1.571069e-001 -3.460625e+000 80 75 71
4.184808e-001 1.265358e-001 -3.373113e+000 108 99 91
5.465122e-001 1.534412e-001 -3.439609e+000 54 50 46
4.881939e-001 9.950580e-002 -3.395618e+000 125 116 108
4.646768e-001 8.863835e-002 -3.332024e+000 231 216 227
5.657010e-001 1.178184e-001 -3.365707e+000 87 83 80
5.036573e-001 9.223916e-002 -3.379768e+000 78 71 68
4.765384e-001 7.372881e-002 -3.331963e+000 152 124 128
5.248481e-001 8.869783e-002 -3.376614e+000 74 66 63
5.438802e-001 9.055006e-002 -3.373509e+000 61 56 52
5.354635e-001 7.990409e-002 -3.355089e+000 81 71 64
5.237876e-001 6.927592e-002 -3.296510e+000 129 100 101
5.700139e-001 7.942631e-002 -3.347952e+000 147 142 110
5.819937e-001 8.119721e-002 -3.362492e+000 149 136 124
5.156472e-001 5.317780e-002 -3.294285e+000 186 134 132
5.292864e-001 5.677679e-002 -3.287548e+000 94 51 55
5.349978e-001 5.951368e-002 -3.302757e+000 150 111 105
5.430709e-001 5.988572e-002 -3.335280e+000 118 110 97
5.002281e-001 4.483818e-002 -3.308396e+000 207 166 167
5.228982e-001 5.208331e-002 -3.292430e+000 228 198 192
5.365209e-001 5.406478e-002 -3.291479e+000 55 44 39
5.875277e-001 6.591510e-002 -3.336041e+000 73 72 68
5.369875e-001 3.847911e-002 -3.298260e+000 78 67 64
5.491911e-001 3.748352e-002 -3.295151e+000 157 143 137
5.375171e-001 2.657721e-002 -3.276804e+000 217 188 184
5.797004e-001 3.477754e-002 -3.290521e+000 196 173 164
6.354014e-001 5.143359e-002 -3.311337e+000 83 83 72
6.091789e-001 1.561340e-002 -3.238945e+000 40 39 35
6.320015e-001 -6.000027e-002 -3.097916e+000 133 136 129
6.518050e-001 -1.550821e-001 -2.932515e+000 122 125 117
6.633592e-001 -1.626009e-001 -2.910481e+000 130 133 127
7.050679e-001 -2.934461e-001 -2.650824e+000 165 153 130
7.285186e-001 -3.143110e-001 -2.629226e+000 101 101 99
-7.124613e-001 9.868779e-001 -4.328940e+000 125 112 105
-5.153768e-001 1.028473e+000 -4.399988e+000 95 82 74
-6.084126e-001 9.611053e-001 -4.311700e+000 179 154 140
-6.321453e-001 9.359211e-001 -4.272440e+000 155 138 125
-1.947466e+000 4.782637e-001 -3.414080e+000 138 124 98
-1.936143e+000 4.629858e-001 -3.378274e+000 168 157 125
-5.167226e-001 9.543192e-001 -4.336490e+000 173 158 148
-4.054601e-001 9.107177e-001 -4.301993e+000 148 135 127
-2.958734e-001 9.125492e-001 -4.330509e+000 27 20 14
-5.333728e-001 7.876034e-001 -4.048547e+000 151 146 141
-4.506813e-001 7.044246e-001 -3.941326e+000 27 19 12
-1.702122e+000 2.687120e-001 -3.148788e+000 41 33 30
-1.615286e+000 2.831262e-001 -3.159737e+000 46 29 23
-2.883360e-001 7.297939e-001 -4.077987e+000 46 36 29
2.002692e-001 4.749155e-001 -3.776561e+000 76 68 67
4.925428e-001 9.530553e-002 -3.389785e+000 128 118 109
5.590503e-001 8.902540e-002 -3.360053e+000 82 85 71
5.442292e-001 4.164494e-002 -3.232513e+000 68 54 54
5.734121e-001 2.926835e-002 -3.280612e+000 51 43 38
5.799541e-001 1.642390e-002 -3.216426e+000 31 26 24
-1.758864e+000 4.594504e-001 -3.426237e+000 250 216 224
-4.247325e-001 9.094827e-001 -4.271564e+000 126 112 109
-4.293953e-001 9.238890e-001 -4.321293e+000 25 17 15
-5.994092e-001 7.849509e-001 -3.948445e+000 153 142 128
-1.832413e+000 4.042870e-001 -3.354274e+000 193 153 151
-1.977075e+000 3.082777e-001 -3.110573e+000 114 120 92
-1.590577e+000 3.078672e-001 -3.107069e+000 89 69 80
-2.205421e-001 7.867793e-001 -4.147536e+000 206 162 163
-1.583013e+000 2.772462e-001 -3.118588e+000 30 22 13
-4.613835e-001 6.636681e-001 -3.878267e+000 27 19 16
2.898954e-001 4.042652e-001 -3.692358e+000 123 114 106
3.871631e-001 2.790661e-001 -3.551117e+000 85 80 74
4.847936e-001 1.711120e-001 -3.422545e+000 109 102 92
5.699149e-001 4.221432e-002 -3.287293e+000 143 121 120
5.896053e-001 3.707104e-002 -3.264550e+000 148 124 122
-4.520894e-001 9.531650e-001 -4.307722e+000 142 133 124
-6.246669e-001 8.029687e-001 -4.029586e+000 38 26 26
-5.190795e-001 7.956743e-001 -4.053218e+000 42 34 31
-4.184551e-001 7.298978e-001 -4.059627e+000 129 128 115
5.335314e-001 3.910598e-002 -3.273953e+000 28 19 17
-6.095978e-001 1.036272e+000 -4.429713e+000 75 73 62
-6.822455e-001 9.666637e-001 -4.300198e+000 117 103 95
-6.019051e-001 9.702494e-001 -4.308263e+000 173 151 162
-4.068909e-001 8.672469e-001 -4.250354e+000 35 24 16
-3.975081e-001 8.716642e-001 -4.257635e+000 125 119 107
-3.953407e-001 8.442410e-001 -4.233183e+000 120 109 100
-3.692766e-001 8.202642e-001 -4.180519e+000 255 234 237
-3.536623e-001 8.202168e-001 -4.189605e+000 92 58 56
-3.150927e-001 7.756422e-001 -4.106320e+000 130 117 113
-3.338603e-001 7.559582e-001 -4.093360e+000 139 125 116
-3.203311e-001 7.472092e-001 -4.075250e+000 87 76 66
3.968999e-001 1.487199e-001 -3.434730e+000 112 104 96
3.077886e-003 -7.239063e-002 -2.432424e+000 80 89 86
5.478331e-001 4.762377e-002 -3.296207e+000 111 92 94
5.229676e-001 3.323498e-002 -3.289228e+000 137 115 116
2.863266e-001 -2.262825e-001 -2.325742e+000 116 128 126
4.498496e-001 -3.049807e-001 -2.312167e+000 75 80 79
4.636320e-001 -3.052595e-001 -2.314904e+000 111 116 111
4.753446e-001 -3.026687e-001 -2.323538e+000 123 128 124
4.899597e-001 -2.995988e-001 -2.330941e+000 142 144 138
5.029256e-001 -3.001571e-001 -2.343266e+000 72 76 68
4.649666e-001 -3.126809e-001 -2.307478e+000 74 83 78
4.601540e-001 -3.171242e-001 -2.306786e+000 108 119 112
7.165417e-001 -2.638607e-001 -2.724875e+000 99 99 96
5.022323e-001 -3.086036e-001 -2.332598e+000 107 114 109
4.536733e-001 -3.315050e-001 -2.285341e+000 146 152 148
5.325176e-001 -3.146960e-001 -2.400702e+000 112 111 106
4.937693e-001 -3.325460e-001 -2.300273e+000 105 111 109
5.284450e-001 -3.279122e-001 -2.352794e+000 94 101 95
4.929130e-001 -3.378973e-001 -2.304430e+000 151 158 150
5.017449e-001 -3.369553e-001 -2.307921e+000 78 87 82
5.338720e-001 -3.375379e-001 -2.359754e+000 101 102 97
-4.590635e-001 8.460085e-001 -4.154893e+000 56 36 34
-4.567723e-001 7.190349e-001 -3.907789e+000 16 10 0
-6.641842e-001 9.481507e-001 -4.284938e+000 35 31 27
-4.439916e-001 7.588366e-001 -4.075395e+000 76 68 54
-6.860397e-001 1.112006e+000 -4.506817e+000 62 46 30
-6.555088e-001 1.117753e+000 -4.506939e+000 121 105 91
-8.577390e-001 1.040680e+000 -4.406331e+000 63 49 38
-8.675305e-001 1.018079e+000 -4.353671e+000 54 37 30
-8.256521e-001 1.050922e+000 -4.437180e+000 52 36 21
-7.722729e-001 1.061043e+000 -4.426634e+000 79 64 57
-6.680207e-001 1.064150e+000 -4.370263e+000 97 74 59
-8.181380e-001 1.002122e+000 -4.323576e+000 91 78 66
-7.603101e-001 1.006159e+000 -4.312621e+000 100 89 76
-8.079656e-001 9.841047e-001 -4.296417e+000 126 115 100
-7.791988e-001 9.687245e-001 -4.245424e+000 80 57 47
-7.371698e-001 1.014062e+000 -4.353701e+000 85 77 67
-7.153282e-001 1.024440e+000 -4.382369e+000 53 38 32
-5.883950e-001 1.071130e+000 -4.436916e+000 104 93 75
-7.140841e-001 1.029317e+000 -4.404588e+000 97 84 73
-6.995977e-001 1.013042e+000 -4.354316e+000 140 123 113
-6.518866e-001 1.020863e+000 -4.361443e+000 66 47 38
-6.981562e-001 9.717939e-001 -4.263753e+000 78 63 58
-7.606040e-001 9.557777e-001 -4.253979e+000 68 53 46
-5.399788e-001 1.043746e+000 -4.398753e+000 150 131 125
-7.156442e-001 9.165514e-001 -4.120106e+000 122 109 77
-7.180436e-001 9.756326e-001 -4.311932e+000 125 112 103
-7.497662e-001 9.042768e-001 -4.110718e+000 118 109 92
-7.004714e-001 9.769307e-001 -4.317342e+000 57 43 31
-6.959551e-001 9.121454e-001 -4.126003e+000 74 66 48
-7.109050e-001 8.935736e-001 -4.076501e+000 87 71 59
