ply
format ascii 1.0
element face 0
property list uchar int vertex_indices
element vertex 101
property float x
property float y
property float z
property uchar diffuse_red
property uchar diffuse_green
property uchar diffuse_blue
end_header
-4.475885e-001 -2.610073e-001 -2.186172e+000 146 143 150
2.590909e-001 -4.030723e-001 -2.379424e+000 37 36 34
-4.820084e-001 -2.277736e-001 -2.176385e+000 217 214 211
-1.838202e-001 -3.609388e-001 -2.239897e+000 118 117 115
1.722384e-001 -3.532349e-001 -2.341873e+000 119 120 112
1.137562e-001 -1.314247e-001 -2.259628e+000 118 129 125
1.989544e-001 -1.604783e-001 -2.265587e+000 247 243 238
2.093479e-001 -1.696387e-001 -2.267258e+000 236 229 238
2.018056e-001 -1.726229e-001 -2.264080e+000 208 207 208
2.070400e-001 -1.776984e-001 -2.262967e+000 216 215 221
3.190757e-001 -2.335560e-001 -2.349991e+000 75 84 81
9.844095e-002 -2.174788e-001 -2.261698e+000 90 94 95
-4.931499e-001 -1.946392e-001 -2.174339e+000 189 186 173
2.454481e-001 -3.416202e-001 -2.355670e+000 45 46 41
2.130575e-001 -3.619246e-001 -2.349693e+000 70 72 67
1.301638e-001 -3.782981e-001 -2.350113e+000 70 75 71
1.743552e-001 -3.921234e-001 -2.357521e+000 88 94 87
2.115187e-001 -3.943621e-001 -2.361660e+000 33 34 29
2.201743e-001 -3.980391e-001 -2.365577e+000 74 73 71
1.198635e-001 -3.818363e-001 -2.351356e+000 114 117 113
-1.719897e-001 -3.235960e-001 -2.219970e+000 73 76 75
2.171412e-001 -4.102248e-001 -2.382154e+000 56 59 52
-6.875081e-002 -3.570164e-001 -2.266742e+000 94 98 97
2.523225e-001 -4.202775e-001 -2.382752e+000 62 66 65
-5.433922e-002 -3.641125e-001 -2.274335e+000 75 80 76
1.767338e-001 -4.083286e-001 -2.363232e+000 103 107 107
-2.778265e-002 -3.694287e-001 -2.280580e+000 150 155 151
-2.014365e-001 -3.369690e-001 -2.217796e+000 104 105 100
-4.176669e-002 -3.704254e-001 -2.284317e+000 67 71 66
1.849854e-001 -4.191057e-001 -2.365660e+000 58 60 57
-1.839311e-001 -3.486837e-001 -2.232280e+000 64 64 62
-8.441896e-003 -3.836486e-001 -2.291380e+000 66 68 67
-1.841331e-001 -3.560509e-001 -2.239142e+000 72 71 69
3.442681e-002 -4.010128e-001 -2.312859e+000 61 63 61
-1.976174e-001 -3.615619e-001 -2.238954e+000 103 102 98
2.004221e-001 -1.604224e-001 -2.270766e+000 248 244 240
1.909522e-001 -3.892523e-001 -2.363512e+000 24 25 22
-1.630121e-001 -3.721413e-001 -2.250872e+000 48 49 44
1.754759e-001 -3.543752e-001 -2.346097e+000 118 118 110
-2.633441e-001 -4.119149e-001 -2.256671e+000 130 130 114
2.093608e-001 -3.565653e-001 -2.357530e+000 40 41 38
-4.357724e-001 -2.591374e-001 -2.189373e+000 234 235 230
-2.166479e-002 3.195607e-001 -2.140621e+000 107 109 106
-4.001112e-002 3.090742e-001 -2.137314e+000 106 108 105
-2.499540e-002 3.030409e-001 -2.149452e+000 98 99 94
-2.810639e-001 -5.578830e-002 -2.166885e+000 109 119 117
-2.992218e-001 -6.831409e-002 -2.157649e+000 91 102 97
-2.924293e-001 -6.766115e-002 -2.158275e+000 117 128 125
2.011108e-001 -1.479227e-001 -2.271661e+000 251 249 246
2.588689e-001 -1.576342e-001 -2.314040e+000 171 174 182
2.254128e-001 -1.656472e-001 -2.277595e+000 164 161 170
-1.268840e-001 -1.722667e-001 -2.223534e+000 188 194 194
2.029573e-001 -1.814978e-001 -2.264492e+000 191 192 192
1.159235e-001 -1.888190e-001 -2.251662e+000 115 121 121
-1.016337e-001 -2.081637e-001 -2.236783e+000 179 184 187
-1.053696e-001 -2.132811e-001 -2.233211e+000 171 176 180
-4.855617e-001 -2.264400e-001 -2.174909e+000 130 128 132
-6.674867e-002 -2.466866e-001 -2.257740e+000 169 174 177
-1.607643e-001 -2.444223e-001 -2.202355e+000 129 137 134
3.042899e-001 -2.591116e-001 -2.341802e+000 76 85 81
-7.406295e-002 -2.642900e-001 -2.249565e+000 171 179 181
-6.964992e-002 -2.681300e-001 -2.252215e+000 186 192 195
-5.232646e-002 -2.852167e-001 -2.263536e+000 183 189 189
-5.286772e-002 -2.906357e-001 -2.259615e+000 170 174 175
-4.876072e-002 -2.993268e-001 -2.264342e+000 125 131 131
1.683402e-001 -3.310801e-001 -2.343344e+000 89 90 84
2.018130e-001 -3.327995e-001 -2.344717e+000 38 39 30
2.554542e-001 -3.429727e-001 -2.356385e+000 115 115 107
8.300478e-002 -3.411934e-001 -2.323685e+000 139 144 140
1.711170e-001 -3.512476e-001 -2.347339e+000 91 92 86
1.992746e-001 -3.500267e-001 -2.352760e+000 91 92 86
2.632627e-001 -3.536290e-001 -2.366077e+000 88 89 83
-2.574836e-001 -3.343824e-001 -2.202878e+000 110 111 105
-1.954650e-001 -3.566522e-001 -2.234222e+000 65 65 59
1.486898e-001 -3.767190e-001 -2.362529e+000 72 76 71
1.981307e-001 -3.740219e-001 -2.349339e+000 99 101 94
3.549386e-002 -3.701260e-001 -2.304334e+000 100 106 103
2.718948e-001 -3.838988e-001 -2.384052e+000 93 95 90
-1.862765e-001 -3.689097e-001 -2.243562e+000 84 84 82
1.539836e-001 -3.877459e-001 -2.365355e+000 51 55 51
1.407836e-001 -3.925318e-001 -2.353587e+000 76 78 73
1.698452e-001 -3.928758e-001 -2.356828e+000 121 126 120
9.436607e-002 -3.937449e-001 -2.333161e+000 93 98 94
2.429044e-001 -4.158864e-001 -2.378411e+000 58 60 57
1.323556e-001 -4.250676e-001 -2.353213e+000 41 44 37
2.542051e-001 -1.516884e-001 -2.284538e+000 159 164 169
2.205193e-001 -1.653249e-001 -2.276704e+000 231 229 240
2.046721e-001 -1.796939e-001 -2.268182e+000 170 172 171
-7.273660e-002 -2.386298e-001 -2.255536e+000 224 229 231
2.652118e-001 -4.131704e-001 -2.391829e+000 33 33 33
2.215250e-001 -3.424755e-001 -2.355487e+000 94 95 89
2.107449e-001 -3.583051e-001 -2.339731e+000 58 61 55
-2.321997e-001 -3.401881e-001 -2.206460e+000 108 107 102
4.006767e-002 -3.711992e-001 -2.307198e+000 82 88 85
1.650621e-001 -4.311532e-001 -2.373474e+000 111 117 112
-2.420455e-001 -3.643635e-001 -2.223392e+000 45 45 36
2.363785e-001 -4.069561e-001 -2.378503e+000 30 31 26
2.633358e-003 2.661998e-002 -9.611584e-003 0 255 0
2.535787e-003 2.603772e-002 -5.960810e-002 255 255 0
5.789563e-001 -6.283127e-001 -5.631675e-001 255 0 0
5.658313e-001 -6.119485e-001 -6.085541e-001 255 255 0
