ply
format ascii 1.0
element face 0
property list uchar int vertex_indices
element vertex 856
property float x
property float y
property float z
property uchar diffuse_red
property uchar diffuse_green
property uchar diffuse_blue
end_header
1.837986e-001 -4.030328e-001 -2.366942e+000 120 124 122
9.753374e-002 -2.174594e-001 -2.266056e+000 86 90 91
-4.958231e-001 -2.241200e-001 -2.184756e+000 120 119 113
-4.848066e-001 -2.324904e-001 -2.170130e+000 172 170 160
2.263811e-001 -3.386445e-001 -2.353412e+000 126 127 121
1.167970e-001 -3.629974e-001 -2.341877e+000 52 52 50
-1.880200e-001 -3.569920e-001 -2.236989e+000 44 43 41
-2.035246e-001 -3.616826e-001 -2.239123e+000 57 56 51
2.382217e-001 -3.900902e-001 -2.357555e+000 87 84 79
-1.466416e-001 -3.836494e-001 -2.276893e+000 74 74 70
1.812542e-001 -4.250585e-001 -2.384661e+000 103 108 102
5.714390e-001 -3.191571e-002 -2.408437e+000 20 23 31
1.797534e-001 -3.979490e-001 -2.354456e+000 112 120 115
1.929551e-001 -4.032686e-001 -2.372745e+000 45 47 43
-7.922473e-002 3.534434e-001 -2.118188e+000 215 205 214
-7.288513e-002 3.513892e-001 -2.119510e+000 198 192 203
-8.996499e-002 3.444270e-001 -2.116346e+000 183 167 176
-7.503809e-002 3.395908e-001 -2.120132e+000 165 148 148
-9.940019e-002 3.286084e-001 -2.111392e+000 172 170 166
-7.496834e-002 3.318177e-001 -2.117211e+000 187 187 208
-7.213770e-002 3.330827e-001 -2.120448e+000 198 202 222
-5.123668e-002 3.326741e-001 -2.122865e+000 192 191 204
-4.967597e-002 3.297231e-001 -2.124683e+000 176 173 169
-5.932196e-002 3.269439e-001 -2.123043e+000 178 181 185
-8.307361e-002 3.227058e-001 -2.123338e+000 176 176 178
-7.151824e-002 3.125401e-001 -2.121115e+000 114 113 118
-1.063553e-001 3.034758e-001 -2.116862e+000 152 154 156
-1.464000e-001 2.664545e-001 -2.126313e+000 107 110 114
-6.699388e-002 2.638130e-001 -2.146898e+000 153 150 145
-2.298987e-001 -1.104378e-001 -2.172063e+000 143 147 151
-1.918884e-001 -1.588535e-001 -2.184804e+000 136 140 140
5.674742e-001 -1.098583e-001 -2.373591e+000 77 79 78
2.022846e-001 -1.584729e-001 -2.269721e+000 212 205 209
1.985215e-001 -1.598432e-001 -2.267668e+000 244 237 242
6.092858e-001 -1.109273e-001 -2.385208e+000 105 105 109
-1.436900e-001 -2.086819e-001 -2.210781e+000 110 109 105
-1.079430e-001 -2.036280e-001 -2.239753e+000 188 185 195
-9.924055e-002 -2.205721e-001 -2.244004e+000 220 225 233
-1.034367e-001 -2.423611e-001 -2.235275e+000 134 139 148
-8.389811e-002 -2.456119e-001 -2.248502e+000 193 197 204
-7.755455e-002 -2.529191e-001 -2.250342e+000 200 198 209
2.988003e-001 -2.203323e-001 -2.337391e+000 107 113 111
-6.419455e-002 -2.729313e-001 -2.260424e+000 209 209 216
3.320722e-001 -2.597951e-001 -2.358168e+000 96 106 98
3.081145e-001 -2.668487e-001 -2.345227e+000 101 103 99
3.314446e-001 -2.650904e-001 -2.359713e+000 67 74 73
-2.412542e-001 -3.582777e-001 -2.223632e+000 53 47 44
-2.539779e-001 -3.610244e-001 -2.222264e+000 116 107 103
-2.326857e-001 -3.602383e-001 -2.224507e+000 113 102 98
3.670852e-002 -3.711575e-001 -2.310642e+000 96 98 94
2.761343e-001 -3.523997e-001 -2.365057e+000 103 98 92
2.244536e-003 -3.897579e-001 -2.302666e+000 90 86 83
8.567124e-003 -3.921091e-001 -2.304603e+000 90 85 81
2.336642e-002 -3.993393e-001 -2.311506e+000 98 97 90
-4.292902e-002 -4.138427e-001 -2.304902e+000 141 134 129
2.905127e-001 -3.747919e-001 -2.380474e+000 113 113 104
1.541304e-001 -3.876923e-001 -2.362004e+000 67 68 63
1.596899e-001 -3.887537e-001 -2.363739e+000 117 119 115
1.638894e-001 -3.895735e-001 -2.363678e+000 70 72 69
2.839889e-001 -3.829463e-001 -2.383831e+000 105 106 101
5.811944e-002 -4.105561e-001 -2.328803e+000 77 72 69
7.097316e-002 -4.144172e-001 -2.333660e+000 69 68 64
1.914321e-001 -4.001029e-001 -2.369560e+000 45 43 44
1.002839e-002 -4.237805e-001 -2.326671e+000 137 131 126
1.480449e-001 -4.076360e-001 -2.354964e+000 90 88 91
1.924939e-001 -4.160871e-001 -2.368418e+000 130 130 125
2.738977e-001 -4.155079e-001 -2.388537e+000 82 82 77
2.259470e-001 -4.300066e-001 -2.371844e+000 99 99 97
2.284856e-001 -3.049242e-001 -2.322508e+000 70 68 57
-1.898052e-001 -3.815127e-001 -2.255329e+000 143 140 134
2.525445e-001 -3.665759e-001 -2.366018e+000 121 121 113
1.274115e-001 -4.043931e-001 -2.349986e+000 109 106 106
2.105597e-001 -4.067659e-001 -2.372645e+000 43 42 39
1.693005e-001 -4.213688e-001 -2.363106e+000 136 137 134
1.068580e-001 -2.503660e-001 -2.276525e+000 95 94 90
-1.760030e-001 -3.291575e-001 -2.224449e+000 76 75 79
2.289036e-001 -3.014016e-001 -2.326811e+000 73 68 62
2.128836e-001 -3.260305e-001 -2.336530e+000 58 56 45
-1.501567e-001 -3.795873e-001 -2.262506e+000 74 70 69
2.066374e-002 -3.971616e-001 -2.312299e+000 98 90 87
1.543112e-001 -3.871144e-001 -2.362509e+000 56 57 52
1.429192e-001 -3.937934e-001 -2.362696e+000 96 96 93
1.819105e-001 -3.910435e-001 -2.364594e+000 100 101 96
2.818460e-001 -3.933342e-001 -2.386567e+000 121 120 118
1.716722e-001 -4.218169e-001 -2.364044e+000 147 146 141
-4.048062e-002 -3.723405e-001 -2.285125e+000 65 64 62
1.860101e-001 -3.832840e-001 -2.363419e+000 25 25 23
1.605279e-001 -4.148877e-001 -2.361998e+000 60 56 56
-3.813290e-001 -2.655627e-001 -2.185516e+000 114 123 116
-7.113360e-002 -2.383554e-001 -2.250376e+000 157 162 152
-2.367940e-001 -3.449112e-001 -2.214231e+000 51 43 46
2.387462e-001 -3.640297e-001 -2.352269e+000 145 147 142
2.817853e-001 -3.679963e-001 -2.372506e+000 53 48 45
2.054352e-001 -1.545867e-001 -2.272962e+000 254 250 254
-8.669693e-002 3.772839e-001 -2.123109e+000 193 187 196
-8.118823e-002 3.758208e-001 -2.121765e+000 192 189 197
-7.588373e-002 3.718558e-001 -2.121256e+000 214 208 217
-1.996769e-001 3.691533e-001 -2.128006e+000 137 138 142
-7.771129e-002 3.663941e-001 -2.121008e+000 145 139 151
-3.789981e-002 3.677694e-001 -2.132063e+000 219 216 221
-2.456718e-002 3.699719e-001 -2.140782e+000 180 172 182
-3.209985e-002 3.658981e-001 -2.135788e+000 204 199 203
-8.498278e-002 3.578648e-001 -2.117716e+000 209 204 215
-2.593029e-002 3.614958e-001 -2.137113e+000 245 238 245
-2.122546e-001 3.506918e-001 -2.133757e+000 187 180 197
-1.261603e-002 3.539315e-001 -2.144668e+000 192 186 197
-4.047998e-002 3.274557e-001 -2.128197e+000 169 170 164
-8.299184e-002 3.073683e-001 -2.118637e+000 153 157 154
-1.835577e-002 2.789560e-001 -2.169207e+000 105 109 110
-1.454433e-001 2.662077e-001 -2.125387e+000 93 102 101
-2.097403e-001 2.639501e-001 -2.146700e+000 130 135 133
-2.130450e-002 2.596961e-001 -2.182233e+000 104 109 106
-3.032888e-001 -1.281823e-002 -2.178399e+000 101 110 107
-2.919170e-001 -1.270147e-002 -2.181139e+000 127 134 127
-3.085723e-001 -1.861041e-002 -2.173425e+000 103 112 109
-3.746426e-001 -3.848352e-002 -2.154249e+000 100 106 106
-3.362058e-001 -4.028378e-002 -2.159750e+000 100 108 106
-2.666788e-001 -4.255479e-002 -2.173790e+000 135 139 138
-2.762711e-001 -4.954975e-002 -2.172261e+000 100 108 104
-4.072871e-001 -5.162323e-002 -2.152880e+000 194 190 190
-3.756636e-001 -5.511660e-002 -2.151135e+000 140 151 146
-4.006327e-001 -6.589395e-002 -2.149027e+000 213 210 214
-3.468721e-001 -6.622435e-002 -2.149132e+000 105 113 116
2.240705e-001 -7.528891e-002 -2.308624e+000 172 168 173
2.088398e-001 -9.023796e-002 -2.298855e+000 223 222 221
-3.801804e-001 -9.223920e-002 -2.144145e+000 181 175 176
-3.801939e-001 -9.558555e-002 -2.146019e+000 219 213 215
2.246883e-001 -1.158782e-001 -2.306056e+000 153 152 171
2.128563e-001 -1.244601e-001 -2.290401e+000 205 206 208
2.510714e-001 -1.279423e-001 -2.318762e+000 99 104 99
2.323909e-001 -1.337925e-001 -2.301130e+000 197 196 202
2.003583e-001 -1.342237e-001 -2.275020e+000 198 197 193
-1.697437e-001 -1.374796e-001 -2.198935e+000 216 215 220
8.212712e-002 -1.404858e-001 -2.270325e+000 98 108 106
1.994606e-001 -1.383616e-001 -2.271636e+000 248 247 243
8.861758e-002 -1.436063e-001 -2.269113e+000 88 97 94
7.874055e-002 -1.505062e-001 -2.273142e+000 118 129 128
7.054881e-002 -1.530251e-001 -2.277711e+000 110 121 117
1.960477e-001 -1.549112e-001 -2.267792e+000 151 151 146
2.571076e-001 -1.592434e-001 -2.313331e+000 212 215 223
1.187126e-001 -1.573976e-001 -2.255987e+000 110 119 118
2.643168e-001 -1.682963e-001 -2.316225e+000 194 200 208
2.316368e-001 -1.684493e-001 -2.287318e+000 175 173 185
2.170971e-001 -1.745868e-001 -2.273908e+000 225 226 230
2.458790e-001 -1.769985e-001 -2.301358e+000 181 185 188
2.693440e-001 -1.779633e-001 -2.317724e+000 165 176 179
-2.269413e-001 -1.736433e-001 -2.167181e+000 123 130 126
2.735720e-001 -1.921222e-001 -2.314568e+000 171 176 179
-5.078473e-001 -2.026681e-001 -2.177417e+000 239 237 243
-5.189202e-001 -2.084835e-001 -2.183525e+000 183 181 194
3.372446e-001 -2.250639e-001 -2.333931e+000 71 77 67
2.864424e-001 -2.267716e-001 -2.329307e+000 84 95 91
-5.176817e-001 -2.290807e-001 -2.189192e+000 165 162 180
9.633619e-002 -2.332930e-001 -2.269235e+000 114 118 117
-5.188842e-001 -2.364047e-001 -2.188382e+000 162 159 168
2.893874e-001 -2.448155e-001 -2.334946e+000 88 97 92
-4.981861e-001 -2.381148e-001 -2.180671e+000 212 212 223
-4.890025e-001 -2.377925e-001 -2.176854e+000 196 190 215
-4.553588e-001 -2.411229e-001 -2.211730e+000 98 108 100
-5.145555e-001 -2.422914e-001 -2.189523e+000 158 156 159
-5.374214e-001 -2.442839e-001 -2.203948e+000 180 174 186
-5.088742e-001 -2.440240e-001 -2.187635e+000 205 205 210
-5.065868e-001 -2.445277e-001 -2.188055e+000 132 132 130
-4.082668e-001 -2.455910e-001 -2.218038e+000 61 67 62
-4.209431e-001 -2.487209e-001 -2.221335e+000 98 106 97
-4.925201e-001 -2.460732e-001 -2.182895e+000 160 158 167
-4.052330e-001 -2.498809e-001 -2.222527e+000 112 116 115
-5.023514e-001 -2.479900e-001 -2.185988e+000 164 162 163
-4.404375e-001 -2.512021e-001 -2.211969e+000 107 115 112
1.242345e-001 -2.533829e-001 -2.277525e+000 122 124 120
-4.964436e-001 -2.505745e-001 -2.183665e+000 144 142 145
-1.224150e-001 -2.520376e-001 -2.224508e+000 123 133 134
-5.221782e-001 -2.555299e-001 -2.199888e+000 177 171 187
-5.021802e-001 -2.538558e-001 -2.187261e+000 165 163 170
3.085878e-001 -2.674011e-001 -2.350519e+000 91 102 97
-4.779012e-001 -2.570057e-001 -2.183453e+000 152 151 177
-3.865362e-001 -2.625760e-001 -2.205658e+000 78 83 79
2.271505e-001 -2.687089e-001 -2.306209e+000 106 108 107
-3.805535e-001 -2.657356e-001 -2.200996e+000 87 92 86
-5.954651e-002 -2.749439e-001 -2.266065e+000 167 174 173
-6.620067e-002 -2.758693e-001 -2.257011e+000 189 194 197
1.824999e-001 -2.832849e-001 -2.294655e+000 77 78 72
-3.887955e-001 -2.801406e-001 -2.183175e+000 149 149 137
1.996693e-001 -2.905409e-001 -2.304984e+000 96 97 89
3.299244e-001 -2.986303e-001 -2.363130e+000 76 82 78
2.256390e-001 -2.976395e-001 -2.318913e+000 75 72 68
2.323633e-001 -3.017044e-001 -2.318742e+000 77 76 71
2.503570e-001 -3.068797e-001 -2.332952e+000 79 79 72
-7.636220e-002 -3.127310e-001 -2.252552e+000 118 127 128
2.128847e-001 -3.251100e-001 -2.340794e+000 49 49 40
-1.363321e-001 -3.274221e-001 -2.238525e+000 101 106 106
1.678219e-001 -3.534666e-001 -2.341872e+000 103 103 96
1.194936e-001 -3.569796e-001 -2.355028e+000 70 70 70
2.832771e-001 -3.623030e-001 -2.371762e+000 109 110 105
8.009243e-001 -3.795714e-001 -2.483651e+000 114 115 102
-2.375570e-001 -3.433450e-001 -2.216459e+000 59 60 54
2.388408e-001 -3.641884e-001 -2.355984e+000 134 141 137
-8.585215e-002 -3.538206e-001 -2.264250e+000 104 108 112
-2.586256e-002 -3.588759e-001 -2.284196e+000 108 111 106
-2.362679e-001 -3.525472e-001 -2.222750e+000 149 146 139
-2.052596e-001 -3.626578e-001 -2.243636e+000 75 73 68
7.772660e-001 -3.954015e-001 -2.457731e+000 221 219 208
-2.402219e-002 -3.704360e-001 -2.286439e+000 133 135 131
-1.260519e-001 -3.756930e-001 -2.258916e+000 106 104 107
-2.234045e-002 -3.780808e-001 -2.283642e+000 81 84 81
7.226936e-001 -4.044764e-001 -2.439152e+000 106 103 93
-2.520207e-001 -3.762033e-001 -2.236342e+000 138 137 124
7.457909e-001 -4.061432e-001 -2.439195e+000 154 144 134
-1.641779e-001 -3.797101e-001 -2.257486e+000 134 137 130
7.129142e-001 -4.098473e-001 -2.436997e+000 153 149 127
7.288688e-001 -4.055133e-001 -2.422549e+000 75 68 68
2.093928e-001 -4.015331e-001 -2.367781e+000 65 65 63
-3.136751e-001 -3.851496e-001 -2.230619e+000 137 130 116
7.042737e-001 -4.153847e-001 -2.420936e+000 137 138 114
-2.758344e-001 -3.912005e-001 -2.243614e+000 123 121 106
-7.800299e-002 -4.033691e-001 -2.289734e+000 109 110 105
-4.185588e-002 -4.139411e-001 -2.305521e+000 115 114 109
1.161402e-001 -4.265718e-001 -2.349901e+000 136 136 134
1.150979e-002 -4.244122e-001 -2.327338e+000 98 97 94
1.778742e-001 -4.320588e-001 -2.370792e+000 106 109 104
-1.575778e-001 -4.267093e-001 -2.296640e+000 105 106 101
1.169454e-001 -4.390410e-001 -2.359192e+000 76 78 75
1.279983e-001 -4.389983e-001 -2.343738e+000 68 70 67
3.557294e-001 -4.632352e-001 -2.354740e+000 252 244 237
7.385039e-002 -4.813860e-001 -2.322154e+000 99 104 98
-3.938160e-002 -4.913060e-001 -2.302621e+000 77 81 79
2.310884e-002 -4.952052e-001 -2.314023e+000 171 169 149
-3.250797e-001 -5.100442e-001 -2.268790e+000 96 98 93
-1.984200e-001 -5.134198e-001 -2.263376e+000 88 93 88
-4.059146e-001 -5.268653e-001 -2.240628e+000 171 170 159
-1.621206e-002 3.573656e-001 -2.143481e+000 150 137 146
2.124646e-001 -9.224093e-002 -2.303812e+000 255 253 254
-4.134930e-001 -1.000929e-001 -2.175281e+000 185 176 184
2.125379e-001 -1.651710e-001 -2.274377e+000 184 178 187
-4.989273e-001 -1.830912e-001 -2.167330e+000 134 132 119
-4.959722e-001 -2.168163e-001 -2.166777e+000 223 219 219
-5.085973e-001 -2.354671e-001 -2.185265e+000 129 127 140
-4.058688e-001 -2.436889e-001 -2.222093e+000 70 72 71
2.013053e-001 -3.334372e-001 -2.345102e+000 33 34 26
1.984331e-001 -3.489238e-001 -2.352161e+000 90 92 85
1.724591e-001 -4.180112e-001 -2.349265e+000 127 130 123
-3.509513e-002 3.522314e-001 -2.126911e+000 171 161 172
-5.311715e-003 3.529947e-001 -2.152207e+000 234 231 227
-3.752171e-001 -6.353883e-002 -2.151476e+000 106 116 112
2.138106e-001 -8.139464e-002 -2.304574e+000 252 251 248
2.177041e-001 -9.383332e-002 -2.314817e+000 255 254 255
-4.442719e-001 -1.053884e-001 -2.140317e+000 254 251 254
2.330745e-001 -1.210984e-001 -2.309294e+000 154 156 178
-4.609083e-001 -1.275267e-001 -2.182618e+000 222 219 210
2.313062e-001 -1.707380e-001 -2.291032e+000 212 210 217
-5.011844e-001 -2.404993e-001 -2.181509e+000 125 123 138
-4.813663e-001 -2.462180e-001 -2.183029e+000 254 253 252
-3.848172e-001 -2.794831e-001 -2.182139e+000 144 145 141
-1.757995e-001 -3.267697e-001 -2.222175e+000 70 73 72
-1.866064e-001 -3.495878e-001 -2.227552e+000 70 70 68
-5.618725e-002 -3.651248e-001 -2.276864e+000 68 73 69
-1.792117e-001 -3.618235e-001 -2.245526e+000 135 136 131
1.857780e-001 -3.835825e-001 -2.359794e+000 17 18 19
-1.788584e-001 -3.815314e-001 -2.257452e+000 64 65 59
7.015217e-001 -4.210951e-001 -2.415614e+000 58 56 46
-5.148912e-001 -2.507277e-001 -2.209786e+000 186 186 196
-3.908460e-001 -2.769164e-001 -2.196830e+000 137 138 127
5.167323e-001 -3.114328e-001 -2.364276e+000 81 91 82
-1.395652e-001 -3.822703e-001 -2.264284e+000 61 60 58
2.136395e-001 -4.012495e-001 -2.365473e+000 26 26 24
6.965257e-001 -4.208974e-001 -2.404155e+000 57 62 49
8.915165e-002 -4.142974e-001 -2.320907e+000 39 40 39
-3.892748e-001 -2.712372e-001 -2.201961e+000 115 120 115
-1.762573e-001 -3.711735e-001 -2.256714e+000 68 67 63
-4.927050e-001 -1.715997e-001 -2.170638e+000 141 138 132
-4.279635e-001 -2.694536e-001 -2.226943e+000 254 254 255
4.876698e-002 3.538186e-001 -2.233726e+000 121 121 121
6.529320e-002 3.134970e-001 -2.246527e+000 138 139 141
2.013623e-003 2.428909e-001 -2.217001e+000 138 135 134
5.152000e-003 2.444251e-001 -2.220031e+000 99 92 93
-1.083936e-002 2.278053e-001 -2.223893e+000 125 124 130
-2.701036e-001 -1.718799e-001 -2.157325e+000 116 120 123
1.998403e-001 -1.388557e-001 -2.272524e+000 210 205 209
2.498249e-001 -1.280622e-001 -2.314812e+000 99 101 98
2.029164e-001 -1.443634e-001 -2.274704e+000 193 187 189
-1.394624e-001 -1.788927e-001 -2.217615e+000 114 117 118
1.181431e-001 -1.575279e-001 -2.253379e+000 120 125 127
2.405653e-001 -1.464244e-001 -2.297998e+000 196 193 201
1.856093e-001 -1.621765e-001 -2.257599e+000 157 161 162
1.605293e-001 -1.668965e-001 -2.254751e+000 125 126 131
2.026909e-001 -1.637643e-001 -2.267968e+000 255 249 254
2.048383e-001 -1.665792e-001 -2.268672e+000 175 165 174
1.934495e-001 -1.753334e-001 -2.259567e+000 133 136 140
1.985881e-001 -1.745029e-001 -2.267026e+000 145 145 151
2.597976e-001 -1.601499e-001 -2.313068e+000 131 132 136
2.153817e-001 -1.746946e-001 -2.274201e+000 216 212 217
2.435838e-001 -1.769529e-001 -2.291767e+000 180 178 180
2.377198e-001 -1.826596e-001 -2.286892e+000 166 167 166
2.567861e-001 -1.780155e-001 -2.307004e+000 180 186 186
5.737218e-001 -1.438443e-001 -2.388054e+000 59 60 57
2.477926e-001 -1.891512e-001 -2.295338e+000 129 128 133
2.527424e-001 -1.891041e-001 -2.298566e+000 196 199 204
-1.191239e-001 -2.384382e-001 -2.223111e+000 129 132 136
5.948627e-001 -1.557545e-001 -2.404487e+000 82 84 83
2.714988e-001 -1.935511e-001 -2.326357e+000 166 170 171
5.657173e-001 -1.635790e-001 -2.401763e+000 97 99 94
2.574794e-001 -2.068453e-001 -2.305452e+000 122 125 125
-1.227458e-001 -2.517890e-001 -2.223954e+000 125 129 138
3.040203e-001 -2.070546e-001 -2.342103e+000 127 132 135
2.979930e-001 -2.118953e-001 -2.337457e+000 104 110 107
6.174292e-001 -1.790892e-001 -2.426994e+000 72 72 72
2.865897e-001 -2.269970e-001 -2.328795e+000 91 95 94
5.914846e-001 -1.877425e-001 -2.427646e+000 96 97 98
3.135403e-001 -2.257864e-001 -2.344988e+000 66 71 67
-6.126891e-002 -2.739658e-001 -2.261321e+000 190 188 196
2.457918e-001 -2.520989e-001 -2.302903e+000 137 136 136
2.299940e-001 -2.594716e-001 -2.291581e+000 131 127 126
6.584569e-001 -1.976980e-001 -2.448897e+000 68 70 66
2.107133e-001 -2.834025e-001 -2.302346e+000 113 103 101
3.186515e-001 -2.668853e-001 -2.350431e+000 107 109 103
-1.738325e-001 -3.263347e-001 -2.223211e+000 65 64 69
5.524760e-001 -2.344239e-001 -2.454615e+000 65 63 59
-1.755561e-001 -3.315742e-001 -2.222487e+000 73 72 73
1.753803e-001 -2.945989e-001 -2.305961e+000 108 101 95
-4.323525e-001 -3.570502e-001 -2.216104e+000 127 110 103
2.109016e-001 -2.950192e-001 -2.310348e+000 73 68 62
6.581496e-001 -2.350797e-001 -2.474085e+000 50 52 49
2.257228e-001 -2.968038e-001 -2.314617e+000 65 58 48
-2.403652e-001 -3.500411e-001 -2.220689e+000 66 55 54
2.452699e-001 -3.080838e-001 -2.324768e+000 89 81 78
3.342567e-001 -2.952094e-001 -2.358515e+000 100 102 99
2.376821e-001 -3.079705e-001 -2.329236e+000 87 82 76
2.520960e-001 -3.074003e-001 -2.328498e+000 62 58 47
-2.064708e-001 -3.585214e-001 -2.237382e+000 91 84 74
6.853951e-001 -2.536026e-001 -2.488661e+000 71 70 68
1.629874e-001 -3.200703e-001 -2.335936e+000 115 112 104
2.537842e-001 -3.149305e-001 -2.335630e+000 140 137 125
6.128922e-001 -2.629887e-001 -2.485439e+000 91 90 88
2.469852e-001 -3.180262e-001 -2.334128e+000 95 92 81
2.769881e-001 -3.142497e-001 -2.344142e+000 132 131 123
-2.038949e-001 -3.691046e-001 -2.238642e+000 71 67 60
2.588097e-001 -3.191693e-001 -2.337978e+000 87 85 72
-2.081071e-001 -3.744591e-001 -2.246044e+000 96 92 83
-2.030156e-001 -3.771937e-001 -2.248566e+000 79 75 69
-1.796311e-001 -3.742564e-001 -2.252013e+000 128 120 118
-1.959400e-001 -3.792942e-001 -2.247483e+000 143 141 124
2.565839e-001 -3.288773e-001 -2.349659e+000 123 121 108
2.510536e-001 -3.317747e-001 -2.349605e+000 79 73 64
-1.258547e-001 -3.761734e-001 -2.261103e+000 106 102 100
1.979515e-002 -3.577710e-001 -2.300735e+000 120 120 121
1.808196e-001 -3.413125e-001 -2.350880e+000 87 86 83
1.065195e-001 -3.501892e-001 -2.350113e+000 122 120 121
2.199685e-001 -3.424170e-001 -2.354997e+000 121 116 110
-2.537073e-001 -4.005182e-001 -2.255712e+000 61 52 48
1.678138e-001 -3.536263e-001 -2.340339e+000 122 119 115
1.998138e-001 -3.502421e-001 -2.352528e+000 121 120 116
-2.043324e-002 -3.799729e-001 -2.291142e+000 87 82 78
-1.739070e-001 -3.965789e-001 -2.267897e+000 97 92 88
-2.685610e-001 -4.087010e-001 -2.258576e+000 115 106 91
2.319742e-001 -3.667939e-001 -2.349380e+000 133 133 130
-1.909920e-001 -4.165326e-001 -2.278385e+000 112 103 104
1.830881e-002 -3.970563e-001 -2.308502e+000 77 78 75
-1.927877e-001 -4.255281e-001 -2.294243e+000 121 115 112
1.809646e-001 -3.915177e-001 -2.367051e+000 131 131 127
2.334924e-001 -3.894853e-001 -2.354495e+000 133 125 123
2.372541e-001 -3.945593e-001 -2.359620e+000 118 115 106
1.912317e-001 -4.017715e-001 -2.367829e+000 53 51 52
2.028318e-001 -4.019406e-001 -2.367106e+000 133 132 127
2.097885e-001 -4.021187e-001 -2.368747e+000 102 99 92
1.977722e-001 -4.069099e-001 -2.367784e+000 78 79 72
-4.697739e-002 -4.372695e-001 -2.328252e+000 116 111 108
6.668542e-002 -4.243302e-001 -2.351453e+000 100 90 92
1.901823e-001 -4.117596e-001 -2.367742e+000 80 81 76
2.276314e-001 -4.102580e-001 -2.372032e+000 102 102 92
2.484540e-001 -4.102922e-001 -2.376696e+000 67 64 59
2.078072e-001 -4.175012e-001 -2.370041e+000 82 83 78
1.615422e-001 -4.242618e-001 -2.360191e+000 135 135 136
1.164288e-001 -4.383127e-001 -2.358345e+000 104 104 102
1.702334e-001 -4.327593e-001 -2.365662e+000 142 142 141
1.215314e-001 -4.441734e-001 -2.363594e+000 100 99 97
2.507627e-001 -4.326501e-001 -2.379751e+000 112 113 113
2.604095e-001 -4.311992e-001 -2.386826e+000 117 122 126
2.255748e-001 -4.384680e-001 -2.366245e+000 88 87 86
2.658047e-001 -4.332086e-001 -2.389568e+000 88 92 95
2.416582e-001 -4.544032e-001 -2.371797e+000 85 88 81
-3.246174e-002 2.969355e-001 -2.144860e+000 90 86 82
3.306974e-001 -2.800761e-001 -2.358331e+000 80 83 76
-3.769335e-002 -3.730728e-001 -2.284706e+000 78 76 74
1.923690e-001 -3.914783e-001 -2.364921e+000 27 24 21
1.572714e-001 -4.421856e-001 -2.372912e+000 104 108 101
-1.020343e-002 2.329036e-001 -2.213676e+000 69 59 57
2.545464e-001 -1.590510e-001 -2.310837e+000 216 211 218
2.606999e-001 -1.970418e-001 -2.306821e+000 231 230 236
3.142285e-001 -2.262245e-001 -2.344722e+000 70 75 71
5.924117e-001 -2.017161e-001 -2.445047e+000 41 41 39
2.110109e-001 -2.976424e-001 -2.305328e+000 66 61 55
-1.828490e-001 -3.537568e-001 -2.229337e+000 58 52 52
2.017305e-001 -3.341593e-001 -2.344605e+000 50 45 41
7.800305e-003 -3.913941e-001 -2.305840e+000 109 104 100
-1.898173e-001 -4.150035e-001 -2.280907e+000 120 112 110
4.388770e-002 -4.290871e-001 -2.336964e+000 153 143 141
1.801398e-001 -4.176234e-001 -2.361254e+000 69 65 64
-7.387457e-002 -2.401512e-001 -2.258189e+000 252 253 247
-1.719000e-001 -3.719959e-001 -2.260588e+000 104 94 92
-1.930979e-001 -3.960711e-001 -2.260782e+000 63 57 62
2.041042e-002 2.692805e-001 -2.211104e+000 127 118 113
-1.763786e-001 -3.279148e-001 -2.223192e+000 91 90 88
-1.931106e-001 -3.585442e-001 -2.242621e+000 73 66 61
-1.322587e-001 1.040851e+000 -4.494538e+000 125 121 111
-4.098489e-001 9.988666e-001 -4.423383e+000 85 78 75
-2.336978e-001 1.030500e+000 -4.488923e+000 103 101 86
-1.105540e-001 1.035950e+000 -4.474344e+000 93 86 83
-3.181376e-001 9.982634e-001 -4.401920e+000 51 40 38
-1.728039e-001 1.035749e+000 -4.506407e+000 70 63 58
-2.550654e-001 9.885444e-001 -4.389011e+000 154 147 136
-3.525127e-001 9.842711e-001 -4.406166e+000 62 59 49
-2.320802e-001 9.924032e-001 -4.410771e+000 22 20 13
-1.158714e-001 1.009147e+000 -4.442075e+000 92 89 93
-3.837821e-001 9.750417e-001 -4.392231e+000 145 141 129
-2.548420e-001 9.852217e-001 -4.400967e+000 133 130 117
-1.078207e-001 1.004693e+000 -4.431673e+000 83 79 80
-7.460271e-002 1.015120e+000 -4.471158e+000 76 70 57
-3.532107e-001 9.698672e-001 -4.395527e+000 36 32 30
-1.948788e-001 9.955438e-001 -4.448930e+000 52 47 44
-3.633897e-001 9.556562e-001 -4.363882e+000 126 123 109
-2.049004e-001 9.834600e-001 -4.426059e+000 156 151 144
-3.498582e-001 9.441859e-001 -4.329756e+000 163 160 142
-2.402661e-001 9.649296e-001 -4.389542e+000 43 39 36
-1.834941e-001 9.688962e-001 -4.395883e+000 126 123 106
-3.311596e-001 9.280272e-001 -4.325783e+000 79 72 72
-2.250571e-001 9.414957e-001 -4.364157e+000 146 141 139
-2.527715e-001 9.370227e-001 -4.357965e+000 51 43 39
-1.772515e-001 9.461673e-001 -4.369908e+000 59 51 52
-1.661207e-001 9.328707e-001 -4.354071e+000 161 152 129
-2.109552e-001 9.140360e-001 -4.312442e+000 147 142 134
-2.068994e-001 8.942544e-001 -4.257766e+000 97 91 89
-1.088522e-001 9.030963e-001 -4.266246e+000 115 108 98
1.288047e-001 9.190449e-001 -4.256434e+000 80 75 66
-9.682316e-002 9.062267e-001 -4.290233e+000 110 101 95
-1.851888e-001 8.920920e-001 -4.277661e+000 108 101 89
-9.304685e-002 8.948851e-001 -4.268029e+000 70 61 52
-1.225159e-001 8.917097e-001 -4.296328e+000 33 27 29
-9.695454e-002 8.877486e-001 -4.259966e+000 92 85 72
1.219386e-001 9.008848e-001 -4.238860e+000 102 93 88
-1.632705e-001 8.749961e-001 -4.262515e+000 73 68 56
-1.146843e-001 8.806250e-001 -4.279441e+000 125 122 113
1.344237e-001 8.937239e-001 -4.230265e+000 79 70 63
1.227896e-001 8.829467e-001 -4.217393e+000 101 93 81
1.115372e-001 8.799494e-001 -4.226916e+000 22 13 9
-1.534989e-001 8.425909e-001 -4.209728e+000 25 15 8
-4.956128e-002 8.556036e-001 -4.237713e+000 163 156 150
1.659631e-002 8.523920e-001 -4.209122e+000 74 64 60
1.231325e-001 8.685918e-001 -4.224520e+000 37 33 30
-5.522237e-002 8.456471e-001 -4.217816e+000 95 91 82
-2.580891e-002 8.368106e-001 -4.203983e+000 99 95 86
2.228672e-002 8.377021e-001 -4.202240e+000 58 51 48
-5.223314e-002 8.205732e-001 -4.186084e+000 170 165 162
-2.259046e-003 8.148079e-001 -4.162693e+000 68 65 60
-2.696788e-002 8.183963e-001 -4.203453e+000 62 58 55
3.601776e-002 8.208728e-001 -4.172583e+000 8 7 5
-7.259676e-002 8.012928e-001 -4.166945e+000 157 155 143
-4.113114e-002 8.052204e-001 -4.164249e+000 42 37 33
-2.937251e-002 8.062147e-001 -4.171131e+000 94 91 82
-1.890960e-002 8.041331e-001 -4.172363e+000 80 76 74
-4.380694e-002 7.955892e-001 -4.161236e+000 118 112 117
4.276877e-003 7.962310e-001 -4.145358e+000 81 78 73
-6.041741e-002 7.907259e-001 -4.155613e+000 149 146 143
-2.626164e-002 7.917768e-001 -4.171931e+000 128 123 119
2.511055e-003 7.737640e-001 -4.103296e+000 99 95 86
-5.256661e-002 7.612004e-001 -4.110661e+000 131 128 111
-3.348889e-002 7.552362e-001 -4.093167e+000 130 127 107
-1.182421e-002 7.631568e-001 -4.121261e+000 82 77 73
2.106877e-002 7.519712e-001 -4.096865e+000 101 97 93
7.340273e-003 7.485673e-001 -4.091212e+000 24 20 17
2.838183e-002 7.461387e-001 -4.081724e+000 69 68 61
-9.067662e-005 7.417313e-001 -4.092521e+000 125 121 118
1.663688e-002 7.365483e-001 -4.074270e+000 137 134 128
5.072491e-002 7.285361e-001 -4.060899e+000 87 82 79
-7.693543e-002 7.068478e-001 -4.041650e+000 119 102 89
4.412020e-002 7.100545e-001 -4.045252e+000 116 114 110
-2.744059e-002 3.568008e-001 -2.134456e+000 221 218 225
-3.019390e-002 3.543748e-001 -2.132250e+000 188 178 176
1.469663e-001 6.895342e-001 -4.016760e+000 64 61 56
4.933352e-002 6.790753e-001 -4.021865e+000 132 128 127
2.408993e-002 6.710227e-001 -4.003490e+000 156 153 147
1.083995e-002 6.629247e-001 -3.979790e+000 122 113 107
6.689495e-002 6.700394e-001 -4.001365e+000 65 61 57
8.894670e-002 6.666252e-001 -3.985767e+000 55 54 47
5.847037e-002 6.615185e-001 -3.994911e+000 88 85 78
-1.101227e+000 4.596029e-001 -3.418084e+000 82 78 66
6.388447e-002 6.351888e-001 -3.922112e+000 57 53 50
2.144729e-001 6.563015e-001 -4.020542e+000 56 52 41
-1.305142e+000 4.092178e-001 -3.335983e+000 87 80 69
4.158650e-002 6.233797e-001 -3.937982e+000 54 49 46
2.325016e-001 6.484586e-001 -4.011346e+000 37 48 30
2.344586e-001 6.373273e-001 -3.993256e+000 146 148 134
-1.389666e+000 3.856493e-001 -3.343443e+000 60 50 42
2.197197e-001 6.264081e-001 -3.951913e+000 73 69 63
2.381324e-001 6.286044e-001 -3.978351e+000 144 143 124
-1.322633e+000 3.787792e-001 -3.324653e+000 57 46 35
-1.277944e+000 3.817797e-001 -3.320868e+000 89 81 68
3.783674e-001 6.435858e-001 -4.047163e+000 142 128 128
-1.347991e+000 3.763526e-001 -3.334466e+000 170 147 131
1.757286e-001 6.089523e-001 -3.972045e+000 127 124 117
-1.295430e+000 3.739592e-001 -3.326164e+000 154 145 128
2.378857e-001 5.992670e-001 -3.936980e+000 100 95 89
-1.348864e+000 3.628732e-001 -3.337058e+000 168 150 135
4.061696e-001 6.302949e-001 -4.049408e+000 21 14 17
-1.294477e+000 3.584875e-001 -3.315074e+000 141 133 114
4.155406e-001 6.279369e-001 -4.048762e+000 147 139 149
-1.356460e+000 3.549061e-001 -3.334359e+000 146 132 118
-1.314092e+000 3.548483e-001 -3.319241e+000 134 123 94
2.319427e-001 5.828855e-001 -3.910565e+000 91 86 82
-1.328848e+000 3.507691e-001 -3.323363e+000 230 213 182
-1.126999e+000 3.782390e-001 -3.396950e+000 86 78 66
1.558651e-002 2.973625e-001 -2.180206e+000 124 129 132
-1.268469e+000 3.081451e-001 -3.297311e+000 97 87 78
-1.271714e+000 2.511858e-001 -3.213871e+000 100 70 68
-1.042995e+000 7.345545e-002 -2.891474e+000 93 95 79
-1.023576e+000 5.374948e-002 -2.891475e+000 93 95 81
6.782667e-001 1.612616e-001 -3.403166e+000 60 61 54
-5.087067e-001 -2.358684e-001 -2.185869e+000 126 123 132
8.186197e-001 -1.353366e-001 -2.946756e+000 118 124 118
-4.541911e-001 -2.744043e-001 -2.179475e+000 243 240 253
7.212567e-001 -1.683831e-001 -2.886545e+000 64 63 60
7.175523e-001 -1.785724e-001 -2.873653e+000 104 106 101
7.378033e-001 -1.926773e-001 -2.840464e+000 108 113 107
8.075462e-001 -2.119729e-001 -2.813618e+000 118 121 117
8.599210e-001 -2.255256e-001 -2.774586e+000 123 136 107
7.624909e-001 -2.424606e-001 -2.770143e+000 120 126 122
8.369589e-001 -2.331239e-001 -2.775628e+000 154 165 135
8.495097e-001 -2.432818e-001 -2.754883e+000 103 111 75
8.621256e-001 -2.513161e-001 -2.740845e+000 88 88 74
7.009434e-002 -3.179549e-001 -2.335075e+000 115 117 114
5.099257e-002 -3.250404e-001 -2.330188e+000 121 130 126
-2.492967e-001 -3.690931e-001 -2.232454e+000 75 71 60
-1.946634e-001 -3.657392e-001 -2.243522e+000 108 105 100
6.608343e-002 -3.442374e-001 -2.331628e+000 128 134 134
-1.921130e-001 -3.823031e-001 -2.259358e+000 138 138 129
-1.249764e-001 -3.755784e-001 -2.259560e+000 120 118 119
1.018893e-001 -3.528512e-001 -2.350179e+000 73 75 70
-1.739595e-001 -3.964167e-001 -2.268811e+000 110 109 105
-3.209326e-002 -3.813282e-001 -2.308636e+000 108 110 108
7.403243e-001 -3.166373e-001 -2.630031e+000 47 49 46
7.349093e-001 -3.214397e-001 -2.624215e+000 33 37 36
1.244144e-001 -3.746267e-001 -2.355245e+000 135 138 135
2.829899e-001 -3.628591e-001 -2.376133e+000 105 104 98
1.782729e-002 -3.966661e-001 -2.310085e+000 78 79 74
1.460418e-001 -3.854129e-001 -2.359911e+000 70 72 67
1.628550e-001 -3.833477e-001 -2.368312e+000 75 77 74
1.938759e-001 -3.928281e-001 -2.366165e+000 65 65 63
6.979718e-001 -3.568849e-001 -2.551564e+000 62 64 59
2.089860e-001 -4.018976e-001 -2.369436e+000 90 89 88
1.600360e-001 -4.136197e-001 -2.358172e+000 63 65 64
1.914636e-001 -4.124404e-001 -2.365351e+000 82 82 78
1.710580e-001 -4.499569e-001 -2.376638e+000 67 67 65
2.631091e-001 -4.422429e-001 -2.390463e+000 50 48 49
6.142439e-001 -4.092967e-001 -2.453388e+000 80 82 77
-1.372590e-001 9.821743e-001 -4.415306e+000 134 131 123
-2.383041e-001 9.383187e-001 -4.355031e+000 147 144 140
-8.621999e-002 8.735351e-001 -4.249299e+000 45 41 38
-6.599327e-002 8.760612e-001 -4.257456e+000 128 123 127
2.615954e-002 7.012247e-001 -4.033378e+000 103 98 97
-1.333988e+000 3.709107e-001 -3.347716e+000 205 192 156
7.282234e-002 -4.145723e-001 -2.331357e+000 59 60 55
-1.501528e-001 9.536571e-001 -4.400986e+000 135 130 124
-8.327489e-002 8.772919e-001 -4.280703e+000 139 136 130
-4.252579e-002 8.039138e-001 -4.159183e+000 40 35 29
2.962791e-002 7.943873e-001 -4.116756e+000 134 130 127
3.774344e-002 7.261752e-001 -3.975581e+000 106 104 98
-1.309545e+000 4.296709e-001 -3.313213e+000 132 121 109
-9.361634e-002 -2.217518e-001 -2.250655e+000 177 179 183
1.862178e-002 -3.973012e-001 -2.319339e+000 88 89 84
3.039048e-002 -4.049920e-001 -2.326796e+000 58 58 58
1.849406e-001 -3.886589e-001 -2.371641e+000 33 33 34
2.147829e-001 -3.959711e-001 -2.357070e+000 38 38 38
-1.177023e-001 8.661668e-001 -4.195496e+000 136 133 125
-7.410673e-002 7.691254e-001 -4.128012e+000 183 180 174
-1.969975e-001 -3.985640e-001 -2.268477e+000 51 47 47
1.756976e-001 -4.222681e-001 -2.367089e+000 147 152 146
5.726084e-002 -2.675650e-001 -2.323621e+000 36 37 39
2.219091e-001 -3.975475e-001 -2.356403e+000 66 65 63
2.320527e-001 -4.033701e-001 -2.381759e+000 67 66 64
-2.003676e-001 -3.685959e-001 -2.252838e+000 98 95 90
-2.545331e-003 8.670575e-002 -2.411077e+000 53 62 59
4.240727e-002 6.792741e-002 -2.408826e+000 140 149 148
4.565883e-002 3.562348e-002 -2.411011e+000 97 106 103
1.453894e-001 -2.352209e-002 -2.417137e+000 73 79 77
1.196636e-001 -3.792216e-002 -2.420338e+000 110 118 117
-4.069029e-001 -2.448558e-001 -2.221281e+000 74 76 71
-4.037220e-001 -2.433412e-001 -2.223133e+000 85 88 85
1.795619e-002 -4.933922e-001 -2.305952e+000 89 86 68
-4.141991e-002 -4.142798e-001 -2.306334e+000 113 113 105
3.405437e-001 -1.042547e-002 -2.459435e+000 28 27 24
1.057141e-001 -3.491692e-001 -2.351422e+000 81 81 79
2.560299e-002 3.503200e-001 -2.190596e+000 165 163 165
-1.472087e-002 2.346486e-001 -2.221251e+000 85 84 82
3.934024e-002 2.188503e-001 -2.248556e+000 161 161 163
-4.667687e-001 -1.395068e-001 -2.182639e+000 223 220 198
-4.797498e-001 -1.525286e-001 -2.179019e+000 225 218 212
-4.853105e-001 -1.571917e-001 -2.171865e+000 239 235 235
6.343324e-002 -3.040822e-001 -2.341477e+000 77 75 76
7.957141e-002 -3.321941e-001 -2.341029e+000 107 109 108
1.599830e-001 -4.274566e-001 -2.365733e+000 94 98 102
-1.926727e-001 -3.527698e-001 -2.234964e+000 134 131 124
-1.750656e-001 -3.729865e-001 -2.257745e+000 83 81 81
6.730641e-002 -3.186958e-001 -2.341158e+000 128 131 130
8.553358e-003 1.686064e-001 -2.238530e+000 116 109 107
-1.179404e-001 -3.882617e-001 -2.274217e+000 57 56 55
4.212490e-001 -1.361505e-001 -2.233542e+000 129 130 137
4.173132e-001 -1.437778e-001 -2.237296e+000 170 177 190
2.206060e-001 -1.540453e-001 -2.280428e+000 173 171 187
4.232129e-001 -1.491454e-001 -2.235938e+000 190 193 198
2.048124e-001 -1.581093e-001 -2.277639e+000 238 233 239
2.147476e-001 -1.652304e-001 -2.273949e+000 170 166 172
-4.335600e-001 -2.604139e-001 -2.204423e+000 150 151 143
1.931555e-001 -3.907773e-001 -2.362476e+000 40 42 36
1.920500e-001 -4.007913e-001 -2.368805e+000 33 35 31
2.016747e-001 -1.614212e-001 -2.284644e+000 247 243 239
2.039923e-001 -1.633165e-001 -2.278476e+000 255 251 255
2.093012e-001 -1.782832e-001 -2.285063e+000 158 157 163
-4.541563e-001 -2.626488e-001 -2.188177e+000 143 142 149
-5.537589e-003 3.526099e-001 -2.150286e+000 234 231 236
4.862154e-001 1.757670e-001 -2.374865e+000 125 130 134
4.963048e-001 1.715577e-001 -2.375421e+000 110 113 118
4.431415e-001 1.052089e-001 -2.380159e+000 134 137 145
-3.094557e-002 2.999763e-001 -2.140096e+000 85 80 75
-3.801054e-002 3.677046e-001 -2.132634e+000 196 184 202
-5.126217e-002 3.648668e-001 -2.124353e+000 250 248 252
-4.583030e-002 3.649991e-001 -2.127172e+000 188 183 199
-2.581118e-002 3.699500e-001 -2.143218e+000 157 147 164
-2.492199e-002 3.652121e-001 -2.138370e+000 233 227 240
-5.360451e-002 3.585762e-001 -2.126327e+000 159 148 169
-3.667237e-002 3.574976e-001 -2.134519e+000 213 202 202
-1.798997e-002 3.604427e-001 -2.138079e+000 222 214 212
-5.346971e-002 3.468904e-001 -2.125885e+000 244 238 245
-1.230180e-002 3.532137e-001 -2.143389e+000 189 184 194
-6.302631e-002 3.359754e-001 -2.119176e+000 197 196 200
5.699110e-001 1.961494e-002 -2.389688e+000 101 111 113
-2.225017e-001 -1.361956e-001 -2.170190e+000 132 138 140
3.158167e-001 -2.937843e-001 -2.353521e+000 130 131 123
2.880769e-001 -3.150037e-001 -2.348766e+000 164 166 154
-2.049866e-002 -3.793899e-001 -2.291354e+000 107 107 108
1.746483e-001 -4.109018e-001 -2.366603e+000 132 134 133
6.857050e-002 -4.730712e-001 -2.334748e+000 86 90 83
5.934270e-001 -2.019856e-001 -2.440584e+000 44 45 45
-9.137318e-002 1.208237e+000 -4.701859e+000 60 51 49
-2.015295e-001 1.181688e+000 -4.675582e+000 32 32 23
-7.553120e-001 1.024909e+000 -4.376969e+000 46 35 28
-7.312415e-001 1.034134e+000 -4.416952e+000 38 28 28
-6.297350e-001 1.036949e+000 -4.377684e+000 127 117 114
-7.388958e-002 1.200283e+000 -4.705565e+000 37 29 31
-7.378405e-001 1.015677e+000 -4.360533e+000 86 77 68
-6.680551e-001 1.022090e+000 -4.358341e+000 81 73 68
-6.951325e-001 1.015455e+000 -4.361162e+000 120 111 98
-6.591656e-001 1.026437e+000 -4.391334e+000 46 38 35
-1.887388e-001 1.159533e+000 -4.645219e+000 107 108 102
-6.626906e-001 1.018041e+000 -4.369319e+000 117 109 105
-5.478657e-001 1.047056e+000 -4.430253e+000 161 153 137
-5.670968e-001 1.032378e+000 -4.381417e+000 148 135 127
-2.028664e-001 1.152297e+000 -4.646626e+000 121 120 116
-1.502475e-001 1.153492e+000 -4.627443e+000 66 61 55
-7.065711e-001 9.999084e-001 -4.342924e+000 39 32 24
-6.494016e-001 1.013227e+000 -4.361658e+000 135 128 119
-2.690203e-001 1.118657e+000 -4.590516e+000 25 17 9
-2.254662e-001 1.122812e+000 -4.574168e+000 38 41 19
-2.922289e-001 1.112307e+000 -4.586383e+000 164 157 129
-5.334539e-001 1.044158e+000 -4.456466e+000 91 81 73
-8.279299e-002 1.157508e+000 -4.657276e+000 80 72 62
-1.690896e-001 1.125478e+000 -4.595714e+000 106 101 97
-5.199388e-001 1.031885e+000 -4.435962e+000 49 40 31
-3.177278e-001 1.088412e+000 -4.536904e+000 91 83 79
-2.951915e-001 1.087776e+000 -4.521466e+000 85 81 74
-5.267725e-001 1.024625e+000 -4.433574e+000 108 100 91
-4.061054e-001 1.050119e+000 -4.459632e+000 32 23 16
-2.231633e-001 1.096404e+000 -4.545060e+000 148 138 118
-1.964109e-001 1.110238e+000 -4.581806e+000 162 144 132
-1.291745e-001 1.135528e+000 -4.648446e+000 73 69 64
-2.397862e-001 1.097047e+000 -4.566599e+000 39 30 17
-5.731497e-001 9.952194e-001 -4.369570e+000 99 88 87
-1.998445e-001 1.097433e+000 -4.558477e+000 111 93 77
-6.578172e-001 9.782966e-001 -4.353836e+000 108 94 83
-6.015751e-001 9.674147e-001 -4.296325e+000 68 51 48
-5.793795e-001 9.434444e-001 -4.215959e+000 157 143 131
-5.111035e-001 1.001453e+000 -4.407059e+000 109 102 95
-3.686234e-001 1.044211e+000 -4.487410e+000 107 102 98
-2.061592e-001 1.077478e+000 -4.541924e+000 53 49 41
-6.019874e-001 9.263898e-001 -4.202173e+000 92 83 79
-3.944022e-001 1.018295e+000 -4.463354e+000 25 20 20
-1.105083e-001 1.090784e+000 -4.591191e+000 70 67 62
-3.747070e-001 1.019247e+000 -4.464629e+000 87 82 79
-1.739989e+000 6.066939e-001 -3.553483e+000 94 93 73
-1.875558e-002 1.086701e+000 -4.573283e+000 43 29 30
-3.465360e-001 9.911852e-001 -4.409668e+000 144 144 134
-1.611665e-001 1.044524e+000 -4.511272e+000 141 137 127
-1.017242e-001 1.039614e+000 -4.449388e+000 109 105 97
-3.596735e-001 9.778350e-001 -4.400880e+000 121 125 111
-7.861366e-002 1.036245e+000 -4.469347e+000 57 52 49
-3.184732e-001 9.691585e-001 -4.387029e+000 95 87 83
-2.186526e-001 1.001040e+000 -4.446620e+000 63 59 52
-1.580249e+000 6.081319e-001 -3.596134e+000 99 76 67
-5.859334e-001 8.520972e-001 -4.078652e+000 83 73 70
-2.878923e-001 9.682657e-001 -4.386016e+000 136 136 129
-5.934023e-001 8.709539e-001 -4.172662e+000 36 31 31
-3.252269e-001 9.555687e-001 -4.362020e+000 164 158 141
-9.211597e-002 1.016277e+000 -4.465554e+000 53 45 40
-3.219711e-001 9.431837e-001 -4.328122e+000 100 93 69
-2.437368e-001 9.675196e-001 -4.410522e+000 61 59 47
-5.154096e-002 9.958186e-001 -4.418758e+000 77 69 63
-2.268587e-001 9.581909e-001 -4.389416e+000 135 129 123
-5.810717e-001 8.425636e-001 -4.129732e+000 109 99 88
-1.473528e-001 9.803589e-001 -4.434525e+000 85 81 70
-9.684357e-002 9.920418e-001 -4.444738e+000 125 120 116
-3.064787e-001 9.233489e-001 -4.329557e+000 43 39 30
-5.240290e-001 8.329642e-001 -4.114553e+000 89 85 85
-4.791794e-001 8.439506e-001 -4.141173e+000 57 43 32
-5.616214e-001 8.154159e-001 -4.077028e+000 103 96 82
-3.002283e-001 9.046736e-001 -4.298730e+000 35 27 25
-1.652201e+000 5.365617e-001 -3.524089e+000 53 42 33
-5.162446e-001 8.176787e-001 -4.080387e+000 90 82 71
-5.057732e-001 8.179652e-001 -4.079087e+000 69 60 55
-1.988300e-001 9.206648e-001 -4.328114e+000 67 63 52
-1.769291e-001 9.227231e-001 -4.344534e+000 84 73 54
-4.660527e-001 8.303694e-001 -4.154874e+000 155 136 126
-4.717736e-001 8.258610e-001 -4.141603e+000 33 25 18
-1.670041e+000 4.998663e-001 -3.459050e+000 134 114 106
-1.632944e+000 5.085558e-001 -3.480866e+000 68 47 44
-5.168958e-001 7.854770e-001 -4.060720e+000 84 78 74
-4.402057e-001 8.118834e-001 -4.123951e+000 178 160 139
-1.988844e-001 8.701549e-001 -4.226829e+000 85 65 55
-1.586369e-001 8.929774e-001 -4.306030e+000 91 87 79
-5.024676e-001 7.827386e-001 -4.062187e+000 26 18 16
-4.251104e-001 8.082139e-001 -4.118856e+000 128 105 73
1.073337e-001 9.229649e-001 -4.280316e+000 114 111 97
-4.578678e-001 7.952129e-001 -4.110856e+000 142 134 129
-1.590748e+000 4.884193e-001 -3.442426e+000 113 89 71
-1.855029e-001 8.437004e-001 -4.206951e+000 40 22 19
-1.236491e-001 8.615576e-001 -4.252486e+000 79 71 64
-4.511441e-001 7.742436e-001 -4.093591e+000 152 148 135
-4.689749e-001 7.379818e-001 -3.954397e+000 146 144 132
-5.879443e-002 8.565093e-001 -4.226430e+000 70 66 56
-4.456327e-001 7.299042e-001 -3.961537e+000 40 29 22
-1.043580e-001 8.200077e-001 -4.149006e+000 90 82 77
-9.125992e-002 8.344314e-001 -4.208610e+000 103 95 93
-3.863980e-002 8.199503e-001 -4.157515e+000 96 91 85
-1.394633e+000 4.467849e-001 -3.357141e+000 77 66 58
-9.989947e-002 8.072906e-001 -4.173966e+000 30 20 17
-4.085926e-001 7.131666e-001 -3.957889e+000 30 22 16
-1.190539e-001 8.025401e-001 -4.175205e+000 148 145 136
-4.013740e-001 7.242951e-001 -4.031795e+000 166 170 145
-6.209555e-002 8.086723e-001 -4.180211e+000 160 153 142
-1.670452e+000 3.862771e-001 -3.311029e+000 191 192 158
-1.359280e+000 4.371193e-001 -3.337824e+000 142 128 110
-2.463525e-001 7.587450e-001 -4.106215e+000 30 22 17
-1.583315e-001 7.734756e-001 -4.138936e+000 66 59 66
-1.358035e+000 4.222629e-001 -3.320278e+000 77 62 44
-1.367258e+000 4.274550e-001 -3.343045e+000 55 41 33
-1.335020e-001 7.697110e-001 -4.124875e+000 171 161 162
-1.573812e-001 7.658583e-001 -4.133381e+000 167 157 153
-3.008636e-002 7.854280e-001 -4.147738e+000 74 65 63
-4.179238e-001 6.786311e-001 -3.936331e+000 110 105 102
-7.973714e-002 7.740433e-001 -4.145921e+000 178 174 169
-7.572230e-002 7.606193e-001 -4.127728e+000 111 100 93
-6.701414e-002 7.612247e-001 -4.123414e+000 98 89 75
-1.382390e+000 4.060269e-001 -3.345455e+000 119 111 100
-1.395780e-001 7.320402e-001 -4.073731e+000 31 19 15
-1.127022e-001 7.330534e-001 -4.056691e+000 37 31 31
-1.352471e+000 4.015283e-001 -3.342648e+000 154 145 142
-1.567582e+000 3.382271e-001 -3.198346e+000 49 37 28
-1.357319e+000 3.856584e-001 -3.340516e+000 209 196 197
-1.380970e+000 3.599636e-001 -3.231901e+000 165 151 145
-1.364234e+000 3.816434e-001 -3.333160e+000 43 29 33
-1.554712e+000 3.228640e-001 -3.176318e+000 58 39 35
-1.369452e+000 3.558328e-001 -3.230690e+000 109 82 71
-1.359408e+000 3.505555e-001 -3.230979e+000 134 114 100
-1.374380e+000 3.609876e-001 -3.319189e+000 91 67 65
-5.272813e-002 7.043308e-001 -4.053653e+000 200 173 167
-1.476152e+000 3.185995e-001 -3.213803e+000 20 15 8
-1.580988e+000 2.962838e-001 -3.190929e+000 177 160 147
-1.351310e+000 3.345073e-001 -3.238999e+000 225 193 167
-1.556601e+000 2.872442e-001 -3.177642e+000 75 63 58
-1.490727e+000 2.928743e-001 -3.174219e+000 113 98 91
-1.335949e+000 3.186531e-001 -3.233353e+000 234 200 179
-1.354709e+000 3.135998e-001 -3.253719e+000 66 40 26
-1.341847e+000 3.186492e-001 -3.263014e+000 214 187 199
2.818015e-001 6.985458e-001 -4.078250e+000 37 34 28
2.846443e-001 5.729133e-001 -3.918614e+000 113 110 103
3.157891e-001 5.748824e-001 -3.930110e+000 91 87 78
3.314809e-001 5.729056e-001 -3.922052e+000 56 53 47
3.434051e-001 5.671124e-001 -3.927198e+000 68 68 60
3.828082e-001 5.585784e-001 -3.920313e+000 93 91 79
-1.142982e+000 4.048974e-002 -2.771548e+000 81 82 68
-1.081869e+000 5.080472e-002 -2.850276e+000 73 71 59
-1.123250e+000 1.500461e-002 -2.794680e+000 148 151 136
4.631021e-001 3.510998e-001 -3.619339e+000 44 42 38
6.336880e-001 2.575546e-001 -3.512159e+000 41 37 34
6.979848e-001 2.591563e-001 -3.521113e+000 43 39 36
7.133292e-001 2.031432e-001 -3.445299e+000 68 67 63
6.711087e-001 -1.775583e-001 -2.882775e+000 121 118 111
6.951508e-001 -2.123237e-001 -2.817897e+000 133 132 134
7.665373e-001 -1.967609e-001 -2.840675e+000 117 122 116
7.190840e-001 -2.134996e-001 -2.812937e+000 125 127 125
8.289755e-001 -1.947505e-001 -2.846558e+000 122 126 123
7.487486e-001 -2.280447e-001 -2.792779e+000 84 86 83
7.613423e-001 -2.254633e-001 -2.792755e+000 95 99 98
8.115257e-001 -2.402778e-001 -2.765998e+000 82 84 83
1.495179e-001 -3.760083e-001 -2.360834e+000 90 94 90
4.838871e-002 -4.050657e-001 -2.317467e+000 87 87 85
2.737665e-001 -3.583719e-001 -2.369782e+000 93 93 91
7.598002e-001 -2.713242e-001 -2.708222e+000 88 90 88
7.433251e-001 -2.784903e-001 -2.695340e+000 107 110 103
7.573855e-001 -2.909535e-001 -2.672656e+000 185 176 169
7.655418e-001 -2.955559e-001 -2.668465e+000 226 217 215
2.371349e-001 -4.100030e-001 -2.382206e+000 57 55 56
7.258626e-001 -3.192529e-001 -2.621172e+000 131 133 130
6.376550e-001 -3.381758e-001 -2.543656e+000 73 75 74
5.424541e-001 -3.939390e-001 -2.474625e+000 82 81 77
7.388147e-001 -3.652014e-001 -2.536794e+000 100 103 100
7.288065e-001 -3.681040e-001 -2.529986e+000 95 97 92
5.430854e-001 -4.159489e-001 -2.432273e+000 59 58 55
5.512569e-001 -4.180126e-001 -2.435732e+000 88 89 84
5.193338e-001 -4.302879e-001 -2.398212e+000 72 67 64
6.674726e-001 -4.097252e-001 -2.454517e+000 91 96 90
-2.399242e-001 1.094448e+000 -4.559734e+000 30 20 8
-5.870972e-001 9.771597e-001 -4.345177e+000 52 35 26
-5.812579e-001 9.795233e-001 -4.360765e+000 133 122 109
-1.221850e-001 1.008828e+000 -4.462758e+000 115 111 107
-1.587460e-001 9.867369e-001 -4.442910e+000 143 138 133
-3.029718e-001 9.411960e-001 -4.347355e+000 144 136 130
-2.009815e-001 9.527879e-001 -4.382246e+000 38 34 33
-4.912127e-001 8.480196e-001 -4.125643e+000 113 101 90
-1.666600e+000 5.436294e-001 -3.523843e+000 118 115 94
-5.345710e-001 8.181386e-001 -4.062481e+000 124 116 107
-1.583083e+000 4.914893e-001 -3.467665e+000 96 65 61
-1.469123e+000 4.869190e-001 -3.435107e+000 64 51 42
-1.299495e+000 4.461497e-001 -3.325730e+000 105 100 94
-1.659913e+000 3.951239e-001 -3.340647e+000 76 56 56
-4.755820e-002 7.999693e-001 -4.152013e+000 50 43 35
-1.660032e+000 3.765428e-001 -3.307773e+000 93 86 59
-1.474753e+000 3.885185e-001 -3.323148e+000 194 160 142
5.757507e-001 2.742015e-001 -3.526665e+000 84 79 73
-1.156573e-001 -3.828058e-001 -2.253357e+000 63 62 61
8.499372e-001 -2.530440e-001 -2.748527e+000 137 128 108
-2.305251e-001 1.050000e+000 -4.494839e+000 83 77 65
-2.135176e-001 1.031451e+000 -4.486831e+000 23 19 16
-3.109260e-001 9.777060e-001 -4.382916e+000 26 23 14
-2.471749e-001 9.884930e-001 -4.380165e+000 148 145 136
-1.762738e-001 9.960546e-001 -4.448346e+000 131 123 121
-5.175574e-001 8.677587e-001 -4.134878e+000 89 82 72
-1.025692e-001 9.890080e-001 -4.421497e+000 147 140 132
-2.217158e-001 9.302098e-001 -4.259816e+000 32 29 21
-1.504908e-001 9.885514e-001 -4.448052e+000 131 126 120
-3.021500e-001 9.371201e-001 -4.354482e+000 162 150 138
-1.512693e+000 4.960825e-001 -3.451453e+000 73 48 41
-1.410073e+000 4.765002e-001 -3.384739e+000 95 77 74
-3.136012e-001 7.872591e-001 -4.108129e+000 93 74 68
-1.597438e+000 4.163492e-001 -3.315662e+000 212 179 157
-3.125271e-001 6.959008e-001 -3.984250e+000 56 52 50
-1.402773e+000 3.734198e-001 -3.330598e+000 100 86 84
-1.393196e+000 3.477576e-001 -3.279243e+000 95 84 72
-1.137903e+000 4.286687e-002 -2.798270e+000 64 60 53
